# .PCD v0.7 - Point Cloud Data file format
VERSION 0.7
FIELDS x y z rgb
SIZE 4 4 4 4
TYPE F F F F
COUNT 1 1 1 1
WIDTH 1003
HEIGHT 1
VIEWPOINT 0 0 0 1 0 0 0
POINTS 1003
DATA ascii
0.47359842 -0.018769311 0.64567959 6.3669271e-39
0.6697799 -0.010973547 0.64577478 8.8162076e-39
0.67290491 -0.015354831 0.64520901 8.7243721e-39
0.68893355 -0.018921003 0.64423025 1.0786889e-38
0.66550267 -0.004802438 0.64468062 8.7243721e-39
0.65788013 0.0062184134 0.64514077 8.7243721e-39
0.66105026 0.001624905 0.64495569 8.7243721e-39
0.64931285 0.018664885 0.64534622 8.8162076e-39
0.65275323 0.013607202 0.64528984 8.8162076e-39
0.63373178 0.0257497 0.64758468 1.3644952e-38
0.64498168 0.025497723 0.64477235 8.8162076e-39
0.63804293 0.036789939 0.64593095 9.0020394e-39
0.64066929 0.032649152 0.64420414 8.8165678e-39
0.63851261 0.041051637 0.64376634 1.1144507e-38
0.64419621 0.045685515 0.64547008 1.0214268e-38
0.44900793 0.054320823 0.64766377 8.0266895e-39
0.4540689 0.053434119 0.64406902 8.1153412e-39
0.46263394 0.051475685 0.64174509 8.1132154e-39
0.64937371 0.051003594 0.64367342 9.8562892e-39
0.65479559 0.055243228 0.64528 9.2026367e-39
0.66114879 0.059991684 0.64884567 8.8162076e-39
0.45561773 0.063745156 0.64554095 8.3064713e-39
0.46213421 0.068823256 0.64496225 8.3064699e-39
0.66484374 0.062594198 0.64422065 9.2073184e-39
0.67421317 0.068052672 0.64571083 9.8447649e-39
0.46764067 0.071856543 0.64512306 8.3064699e-39
0.47490194 0.075501837 0.64481902 8.3064685e-39
0.48034748 0.079472244 0.64381152 8.3064699e-39
0.67900878 0.071476065 0.64215565 1.1149189e-38
0.68349552 0.072707161 0.6461041 9.5631361e-39
0.48574573 0.083044671 0.64557374 8.3064699e-39
0.493393 0.088064507 0.64440936 8.7660271e-39
0.49836698 0.091285951 0.64348525 1.0053578e-38
0.50497311 0.095537364 0.64451116 9.0419064e-39
0.51164275 0.099736691 0.64689094 9.0419064e-39
0.5052008 0.10489722 0.64969158 8.6741888e-39
0.5160839 0.10231462 0.64399785 9.041905e-39
0.5245204 0.10700814 0.64583629 9.4099826e-39
0.53372383 0.11172848 0.64493251 8.3983068e-39
0.54100657 0.11474048 0.64419222 8.3064699e-39
0.60974956 0.12990871 0.6482619 1.7491988e-39
0.60824358 0.13488163 0.64503336 2.4864472e-39
0.60662907 0.14447807 0.64485216 6.4508326e-39
0.6067462 0.15071759 0.64662415 1.1801041e-38
0.44614115 0.19729026 0.64529556 8.4837257e-39
0.45489088 0.19353771 0.64307731 1.253773e-38
0.43815681 0.20735909 0.64525157 1.1613963e-38
0.44149706 0.20248052 0.64502466 9.5885991e-39
0.42955264 0.219064 0.64657098 2.9517918e-39
0.43324557 0.21422839 0.64466196 3.5967828e-39
0.63706845 0.2198817 0.64202839 1.1802841e-38
0.42682317 0.22482528 0.64533484 7.9280535e-39
0.62825888 0.22740886 0.64431971 4.2489037e-39
0.63374764 0.22292219 0.64608103 1.0144039e-38
0.6417774 0.22073786 0.64718115 7.6555009e-39
0.42768875 0.23228574 0.64420199 7.4681879e-39
0.43471503 0.23956504 0.64125091 6.6377126e-39
0.61931372 0.23936643 0.64323962 4.1567081e-39
0.62343353 0.23437372 0.64511454 3.4209409e-39
0.4376412 0.24199265 0.64322746 6.7295453e-39
0.61570436 0.24497771 0.6458019 3.0539548e-39
0.60703772 0.25651696 0.64546692 2.7788057e-39
0.61111176 0.25146976 0.64631164 3.1468693e-39
0.59829849 0.26777044 0.64418691 2.1341551e-39
0.60212356 0.26312861 0.64587194 2.1341593e-39
0.58951932 0.27927554 0.64237738 2.1341551e-39
0.59366298 0.27456599 0.64577967 2.0416036e-39
0.58545959 0.2853128 0.6450839 2.0416022e-39
0.59006977 0.28039122 0.64883804 2.0401729e-39
0.57708156 0.29596898 0.6450088 2.1341551e-39
0.58093375 0.29157394 0.64682966 2.1337992e-39
0.56812567 0.30766195 0.64407825 2.0419609e-39
0.57200533 0.30272147 0.64575315 2.1341565e-39
0.56448966 0.31492516 0.64519495 2.410026e-39
0.56569439 0.32449996 0.64591533 1.6649626e-39
0.57113755 0.32911992 0.64922041 1.7560946e-39
0.56827134 0.33002394 0.6422354 1.5709761e-39
0.57510442 0.33406162 0.64593214 1.5709789e-39
0.58123606 0.33884612 0.64677411 1.5709761e-39
0.5859946 0.34295198 0.64562243 1.5709761e-39
0.59282935 0.34768772 0.64667124 1.6631717e-39
0.59470558 0.35056221 0.64024383 2.768792e-39
0.46640113 -0.4202857 0.6577515 6.2448278e-39
0.45933965 -0.41089162 0.65546912 6.1547915e-39
0.46250722 -0.41590744 0.65620142 6.1551517e-39
0.44962251 -0.40270582 0.65755486 6.2448278e-39
0.4559668 -0.40498543 0.65588617 6.1537125e-39
0.44740039 -0.39041591 0.65868032 6.1537097e-39
0.4519324 -0.39632824 0.65483457 6.8905503e-39
0.44538903 -0.38618395 0.65416723 5.9693199e-39
0.43810573 -0.37358141 0.65505105 6.4292162e-39
0.4410314 -0.37858176 0.65421593 6.2448278e-39
0.43409956 -0.36632913 0.65499407 6.9823858e-39
0.4270049 -0.35366556 0.65593433 1.0023379e-38
0.43016553 -0.35916808 0.65486389 9.5624047e-39
0.41975227 -0.34063825 0.65648669 6.9820257e-39
0.42351738 -0.3470234 0.65398437 8.0887235e-39
0.41634697 -0.3340652 0.65449607 6.9820257e-39
0.40962493 -0.32169589 0.65372896 6.3373807e-39
0.41353589 -0.32649356 0.65413904 8.0008565e-39
0.40569779 -0.31415507 0.65521342 6.2448278e-39
0.40219358 -0.30489346 0.6538142 6.2448278e-39
0.63516718 -0.3034859 0.65305138 3.5979053e-39
0.64069986 -0.30592728 0.65637922 2.6752035e-39
0.39853379 -0.29353452 0.65435427 6.2448278e-39
0.40027547 -0.29843441 0.65457445 6.2448278e-39
0.62771749 -0.29432735 0.65157825 3.6901023e-39
0.63218606 -0.29796645 0.65342426 3.7823007e-39
0.39925441 -0.28949615 0.65602022 6.2448278e-39
0.40500709 -0.28553665 0.65542841 7.0745772e-39
0.41177291 -0.28112128 0.65429085 6.2448278e-39
0.61930162 -0.28171891 0.65522581 2.9517932e-39
0.62256438 -0.28654239 0.65324306 3.32131e-39
0.41669533 -0.27771866 0.65486121 6.3377436e-39
0.42486787 -0.27360722 0.65498912 6.2448278e-39
0.43107557 -0.27037281 0.65439034 6.2448278e-39
0.614353 -0.27481732 0.65521902 2.9517932e-39
0.43571401 -0.26797423 0.65516287 6.2448278e-39
0.44148484 -0.26505846 0.65497297 6.2448278e-39
0.59523946 -0.2675159 0.65586233 1.0695062e-38
0.60529685 -0.26391226 0.65512794 7.7451938e-39
0.61030108 -0.26942337 0.65686744 2.9517932e-39
0.59705174 -0.25369203 0.65477884 9.4947051e-39
0.6009317 -0.25813115 0.65647364 1.0231911e-38
0.58823425 -0.242515 0.65458423 9.5876238e-39
0.59193683 -0.24707904 0.65518016 9.402871e-39
0.57876766 -0.23101932 0.65396774 8.4798287e-39
0.58336633 -0.23643662 0.65524083 8.5720272e-39
0.56848061 -0.22022495 0.65003908 1.1801041e-38
0.57388455 -0.22515696 0.65490019 9.4025095e-39
0.55973876 -0.21019626 0.65093994 1.1801041e-38
0.56517094 -0.21527588 0.65573406 9.9553232e-39
0.55636162 -0.2051691 0.65503812 1.1155677e-38
0.54811925 -0.19313507 0.65572304 2.9517932e-39
0.5511865 -0.19805038 0.65575325 4.1503224e-39
0.54399639 -0.18536723 0.65465742 2.9517932e-39
0.53829688 -0.17368396 0.65514779 2.9517932e-39
0.54076695 -0.17885365 0.653961 2.9517932e-39
0.53814864 -0.16740178 0.65646809 2.9517932e-39
0.54716933 -0.15756701 0.65853941 2.9517932e-39
0.55721271 -0.15303108 0.65831262 2.9517932e-39
0.56530386 -0.15146129 0.65333861 4.0581281e-39
0.54970819 -0.14846435 0.65777069 2.9517932e-39
0.55139953 -0.14505036 0.65949678 2.3986068e-39
0.56737334 -0.14881207 0.65814853 5.9938552e-39
0.57235324 -0.14819589 0.65562415 1.0141535e-38
0.44639158 -0.072097398 0.65761757 7.0090385e-39
0.43756151 -0.063489996 0.65534389 6.0849116e-39
0.44124284 -0.068388559 0.65570492 6.0849116e-39
0.70811385 -0.06124147 0.65537661 8.6325366e-39
0.71306384 -0.06536518 0.65258849 1.0766721e-38
0.43450475 -0.054446831 0.65445971 6.0849144e-39
0.69820338 -0.052026931 0.65506637 6.9794977e-39
0.70352322 -0.057170037 0.654742 6.7958267e-39
0.4365012 -0.04553511 0.65628099 6.8268206e-39
0.44136867 -0.040802225 0.65549016 7.4718271e-39
0.69365638 -0.045048334 0.65470582 5.9693073e-39
0.43227372 -0.033956736 0.65716279 4.5215908e-39
0.44579726 -0.037321988 0.65479159 6.3662068e-39
0.45319739 -0.032871831 0.65455341 6.1821757e-39
0.68628633 -0.034381419 0.65480053 8.7243721e-39
0.69021153 -0.039916493 0.65776765 8.0815237e-39
0.45878124 -0.028842663 0.65418243 6.1821757e-39
0.46419573 -0.024809219 0.6553731 6.6427923e-39
0.47140002 -0.020983668 0.65387553 6.9197421e-39
0.67810613 -0.023439014 0.65509588 8.7243721e-39
0.68142462 -0.027903957 0.65467107 8.8162076e-39
0.47622937 -0.019081034 0.652803 7.1966906e-39
0.4819535 -0.018346138 0.65367639 7.1044907e-39
0.66925913 -0.010765062 0.65430212 8.8162076e-39
0.67299181 -0.016158441 0.65544623 8.8162076e-39
0.48086819 -0.0099889198 0.65036535 1.0786889e-38
0.66527736 -0.0050267521 0.65478277 8.8162076e-39
0.6576634 0.0060779499 0.65485829 8.8162076e-39
0.66105634 0.0010768697 0.65581763 8.7243721e-39
0.64898688 0.018512893 0.6547395 8.8162076e-39
0.6527577 0.013132608 0.65514666 8.8162076e-39
0.64417082 0.025469258 0.65500182 8.7243721e-39
0.63823473 0.035373345 0.65505064 8.7243721e-39
0.64010656 0.031535633 0.6531111 8.8162076e-39
0.64443249 0.044509638 0.65506428 8.7243721e-39
0.44872215 0.053689349 0.65553373 7.9366266e-39
0.45229217 0.058030851 0.65558875 8.3990215e-39
0.64098692 0.051599629 0.65598071 9.2836682e-39
0.65378052 0.05407045 0.65470886 8.8162076e-39
0.66076809 0.059793353 0.65587479 8.8162076e-39
0.45667127 0.06346605 0.65448374 8.4912157e-39
0.46216938 0.0678427 0.65535927 8.3064699e-39
0.6654318 0.062879518 0.65548873 8.8162076e-39
0.67546529 0.067628853 0.6533922 8.8162076e-39
0.46793693 0.071684763 0.65489799 8.3064699e-39
0.47554949 0.076533124 0.65464884 8.3064699e-39
0.68559384 0.072272703 0.65222043 8.8162076e-39
0.4851599 0.082983218 0.65552258 8.3064713e-39
0.49298832 0.08806064 0.65440124 9.6855003e-39
0.49820623 0.091431521 0.65465623 9.4099854e-39
0.50564581 0.096283548 0.65538079 8.3064699e-39
0.51025605 0.099269643 0.65300989 8.3064699e-39
0.51552635 0.10222807 0.65581238 9.0419064e-39
0.52480596 0.10721617 0.65489453 9.4096253e-39
0.53449744 0.11217745 0.65363634 8.5819876e-39
0.54235393 0.11611516 0.65445411 8.3064699e-39
0.60971868 0.12938076 0.65493214 1.5669432e-39
0.60750955 0.13477874 0.65510923 1.1981662e-39
0.61680382 0.13317133 0.65330982 4.3198641e-39
0.60585058 0.14518897 0.6549443 9.3117586e-39
0.60782355 0.15235408 0.65517122 1.1801041e-38
0.6108883 0.15449312 0.6587882 1.3644953e-38
0.44607133 0.19633567 0.65498078 1.0048843e-38
0.45109212 0.19230548 0.65666282 1.1705797e-38
0.43742257 0.20682998 0.65535468 1.1613963e-38
0.44119781 0.20174836 0.65439826 1.1522129e-38
0.42869881 0.21804962 0.65556693 2.9517918e-39
0.43263352 0.21328795 0.65490645 3.5045886e-39
0.42686895 0.22483015 0.65443015 7.6514792e-39
0.62955797 0.22868758 0.65093839 2.1341551e-39
0.63533819 0.22661458 0.65319401 8.4009468e-39
0.64353687 0.2258669 0.65434301 7.7595305e-39
0.65100265 0.22819911 0.65376019 2.9678941e-39
0.42684308 0.23262776 0.65435249 9.4961148e-39
0.43109262 0.23781282 0.65881699 7.3749119e-39
0.62632471 0.23546323 0.65287453 2.7841965e-39
0.63481259 0.23507729 0.65533346 3.433519e-39
0.64493626 0.23516862 0.65638888 6.8404483e-39
0.65430892 0.23557921 0.65645915 1.1070688e-38
0.66270173 0.23804864 0.65556049 2.4969135e-39
0.61763269 0.24646679 0.6519531 2.505453e-39
0.62390566 0.24453834 0.65431732 3.24769e-39
0.63441718 0.245107 0.65579665 3.4338791e-39
0.6448794 0.2450089 0.65683037 3.3391793e-39
0.65508568 0.24490058 0.65749931 4.4387264e-39
0.6640591 0.24549101 0.65782171 7.4729425e-39
0.67191821 0.24695592 0.65584266 6.3666062e-39
0.60853183 0.25863567 0.65135634 2.2242194e-39
0.6151821 0.25523373 0.65334797 2.7806316e-39
0.62527215 0.25499159 0.65488166 2.8703441e-39
0.63484967 0.25500706 0.65557295 2.6816593e-39
0.64577281 0.25514945 0.65608591 2.5873211e-39
0.65552247 0.25511277 0.65677178 2.5873225e-39
0.66417521 0.25475249 0.65712631 2.679874e-39
0.67047161 0.25203025 0.65691286 8.1179546e-39
0.59970391 0.26867145 0.65004504 2.0362548e-39
0.60580134 0.26561722 0.65269709 2.2181644e-39
0.61548275 0.26486686 0.65437543 3.2326863e-39
0.62530619 0.26496425 0.65449715 3.6936616e-39
0.63499629 0.26503113 0.65493786 2.5873211e-39
0.64534646 0.2653476 0.6557067 2.4954842e-39
0.65527654 0.26496297 0.65612984 2.8642667e-39
0.66245812 0.26322475 0.65605575 4.9836717e-39
0.5966177 0.27548149 0.6524148 2.034122e-39
0.60425472 0.27486297 0.654549 2.6791551e-39
0.61533844 0.27477437 0.65473324 8.3016116e-39
0.62525314 0.27494082 0.65473241 1.1619549e-38
0.63481051 0.27507219 0.6553368 4.8914747e-39
0.64510065 0.27512127 0.65657467 2.4954842e-39
0.65388131 0.27496505 0.65734941 7.2885541e-39
0.58751905 0.28672251 0.65239525 1.9419236e-39
0.59473407 0.28446531 0.65449429 2.4029228e-39
0.60525531 0.28498748 0.65529221 7.9331906e-39
0.61487591 0.28494558 0.65531564 1.0790511e-38
0.62502289 0.28518179 0.6555143 9.4997834e-39
0.63490212 0.28511891 0.6563341 4.6148878e-39
0.64431548 0.28449264 0.65778995 4.5234167e-39
0.65154451 0.2824544 0.65859318 1.3832607e-38
0.57850164 0.2977272 0.65165246 1.7578771e-39
0.58462316 0.29457891 0.65421605 2.2181644e-39
0.59511864 0.29525265 0.65518987 6.4584319e-39
0.60444158 0.29504076 0.65527159 1.0236983e-38
0.61462134 0.29494748 0.65576881 1.1250768e-38
0.62498397 0.29498804 0.65645736 4.6152494e-39
0.63505065 0.2947515 0.65708119 3.1404906e-39
0.64242363 0.29429802 0.65657997 8.3941702e-39
0.56938827 0.30927536 0.65151894 1.7575183e-39
0.5748722 0.30517375 0.65397131 1.9415663e-39
0.58423173 0.30485854 0.65626949 4.5230579e-39
0.59503722 0.30494881 0.65588021 1.1343323e-38
0.60531086 0.30510241 0.65645695 1.1066376e-38
0.61543268 0.30508196 0.6570732 4.7070863e-39
0.62506354 0.30483878 0.65726453 2.9564651e-39
0.63358915 0.30443814 0.65580487 7.6573324e-39
0.64176047 0.30710778 0.65071672 5.5372057e-39
0.56799853 0.31516454 0.65195358 1.9415621e-39
0.57422048 0.31526282 0.6556111 2.4947583e-39
0.58434445 0.31506994 0.6561268 9.9607602e-39
0.5948512 0.31487781 0.65611088 1.0881986e-38
0.60481083 0.31513235 0.65707892 7.0112385e-39
0.61491847 0.3147755 0.65787429 2.6798754e-39
0.62433165 0.31369832 0.65732014 8.0257506e-39
0.56778675 0.32268572 0.65128928 1.9404915e-39
0.57468563 0.3252154 0.65401566 2.2178085e-39
0.58509552 0.32516414 0.65535295 4.7992805e-39
0.59501588 0.32498285 0.65590578 8.2094146e-39
0.60499549 0.32508904 0.65657812 2.6795153e-39
0.61475229 0.32451221 0.65733778 5.0762303e-39
0.56383306 0.33765239 0.65019506 1.9408474e-39
0.57767731 0.33256754 0.65205425 1.8482917e-39
0.5851931 0.33473009 0.65440488 2.2181686e-39
0.59510535 0.33505267 0.65579391 2.6795167e-39
0.60531873 0.33466586 0.65626717 3.9698898e-39
0.61319351 0.33196282 0.65643966 1.2450045e-38
0.58737415 0.34143093 0.65182364 1.6638976e-39
0.59572643 0.34406719 0.65409654 2.4021955e-39
0.60239691 0.34274209 0.65566105 4.0620798e-39
0.4633463 -0.41555858 0.66129136 6.2448278e-39
0.45556453 -0.40517077 0.66389197 6.2448278e-39
0.44801182 -0.39227837 0.66449362 6.9845382e-39
0.45128623 -0.39790076 0.66453862 6.2448278e-39
0.44309506 -0.38356978 0.66466427 7.2600447e-39
0.42998502 -0.37411979 0.66290373 1.097128e-38
0.4372161 -0.37360319 0.66483295 8.3635098e-39
0.43183994 -0.36385587 0.66441548 8.3645888e-39
0.42594355 -0.35365364 0.66538769 1.0484713e-38
0.41969824 -0.34225488 0.66492444 7.9050497e-39
0.42172933 -0.34610811 0.6657533 9.6574716e-39
0.41577345 -0.33501965 0.66609186 9.1010664e-39
0.40890199 -0.32194799 0.66625977 8.9267336e-39
0.41146579 -0.32663581 0.66405129 7.630618e-39
0.40548468 -0.31537837 0.66526431 6.3377394e-39
0.39816603 -0.30154118 0.6692968 6.2448278e-39
0.40106595 -0.30605444 0.66484565 6.2448278e-39
0.63561791 -0.30262884 0.66641837 2.7673977e-39
0.39832562 -0.29368827 0.6651938 6.7086856e-39
0.40142173 -0.29122776 0.66624683 6.2448278e-39
0.62641716 -0.29288 0.66662645 2.9517932e-39
0.63153827 -0.29828411 0.66697365 2.9517932e-39
0.40596637 -0.28667712 0.66410774 7.1671302e-39
0.41177264 -0.2817162 0.66425371 6.8005211e-39
0.61923552 -0.28126535 0.66448236 2.9517932e-39
0.62205064 -0.28622478 0.66561937 2.9517932e-39
0.41669101 -0.27801472 0.66473514 8.9318204e-39
0.42531356 -0.27377567 0.66537333 7.4491303e-39
0.43126091 -0.27085593 0.6658628 8.0048222e-39
0.61589086 -0.27538601 0.66556102 3.1358229e-39
0.43619522 -0.26800054 0.66525316 7.9126294e-39
0.44116691 -0.26533619 0.66441101 6.2448278e-39
0.60716158 -0.26404235 0.66479969 1.0141535e-38
0.6112082 -0.26891318 0.66493416 6.0860494e-39
0.59752637 -0.25218287 0.66503501 6.7245048e-39
0.60191071 -0.25756449 0.66517681 7.7401001e-39
0.58856922 -0.2411166 0.66393888 6.5390332e-39
0.592713 -0.24611457 0.66513389 5.8929393e-39
0.57911283 -0.23032762 0.66014165 7.186206e-39
0.58395368 -0.23509176 0.6653257 6.1688073e-39
0.57559019 -0.22497554 0.66499352 6.5386716e-39
0.56656742 -0.21441677 0.6651563 7.0947307e-39
0.57132173 -0.21921666 0.66747957 5.6149105e-39
0.55694342 -0.20388231 0.66494232 1.1431899e-38
0.56147164 -0.20869559 0.66585821 8.0177702e-39
0.54864246 -0.19211733 0.66447192 2.9517932e-39
0.55198926 -0.19732936 0.6648168 5.9938552e-39
0.54418796 -0.18477607 0.66489685 2.9517932e-39
0.53859055 -0.17324744 0.66447896 2.9517932e-39
0.54102212 -0.17725332 0.66708511 2.9517932e-39
0.53846121 -0.16546816 0.66485286 2.9517932e-39
0.54135221 -0.16094595 0.66510302 2.9517932e-39
0.54605091 -0.15779077 0.66567445 2.9517932e-39
0.5544526 -0.15295437 0.66592664 2.9517932e-39
0.56512207 -0.15020841 0.66677052 3.1365516e-39
0.5651952 -0.14945291 0.6651994 3.2287416e-39
0.57461846 -0.1484929 0.66522473 1.0602876e-38
0.58078986 -0.14893262 0.66848016 1.3091778e-38
0.44601393 -0.072122365 0.66610938 6.9172072e-39
0.43722302 -0.063499257 0.66482073 6.1771072e-39
0.44102496 -0.068293676 0.66496336 5.6242936e-39
0.70553207 -0.063930847 0.66726959 7.9896882e-39
0.71447498 -0.06807059 0.66371453 1.3224311e-38
0.43430763 -0.055487871 0.66513526 6.5462527e-39
0.69804323 -0.052326497 0.66527343 6.3366492e-39
0.70130908 -0.057376452 0.66626042 7.2550042e-39
0.43664834 -0.046143219 0.66503125 6.8268192e-39
0.44127131 -0.04099407 0.66454828 7.195243e-39
0.69311363 -0.045107234 0.6651178 7.1631687e-39
0.44589207 -0.037718792 0.66520011 7.195243e-39
0.45387256 -0.032295074 0.66502476 3.1415472e-39
0.68580973 -0.034705024 0.66531128 8.7243721e-39
0.45856756 -0.02897213 0.66489071 2.9582363e-39
0.46414036 -0.024747219 0.66542912 4.984364e-39
0.47055545 -0.021389257 0.6666044 7.5640241e-39
0.67730266 -0.023582689 0.66479498 8.7258099e-39
0.68085557 -0.027645761 0.66518039 8.8162076e-39
0.47616524 -0.018958537 0.66785628 7.4729159e-39
0.48230967 -0.018951355 0.66616821 7.8424187e-39
0.66905022 -0.01084776 0.66577232 8.8162076e-39
0.67273986 -0.016119204 0.66486847 8.8162076e-39
0.66510993 -0.0049685431 0.66499108 8.8162076e-39
0.65739191 0.0063187848 0.66487509 8.7243721e-39
0.66102016 0.0010339716 0.66474092 8.8162076e-39
0.64856631 0.018662492 0.66493595 8.8162076e-39
0.65240717 0.013322756 0.66525185 8.7243721e-39
0.64384949 0.025800968 0.66561204 8.8162076e-39
0.6384331 0.036076076 0.66486818 8.9080431e-39
0.64114606 0.033731237 0.66734463 9.6499298e-39
0.45645201 0.049264073 0.66561913 7.5600416e-39
0.46168947 0.049462683 0.66258496 8.3898023e-39
0.63892531 0.040872388 0.6662488 8.9080431e-39
0.6446054 0.045624241 0.66379064 8.8162076e-39
0.4497726 0.053528309 0.66431367 7.5660644e-39
0.45131028 0.054793082 0.6663999 7.5664218e-39
0.64961958 0.051392697 0.66708398 8.7243721e-39
0.65470392 0.055367973 0.66463149 8.8162076e-39
0.66027367 0.059555233 0.66427386 8.8162076e-39
0.45693883 0.062860839 0.66509372 8.3064685e-39
0.46252787 0.067533232 0.66544729 8.3064685e-39
0.66535431 0.063184582 0.66515732 8.7243721e-39
0.67248732 0.067811936 0.66514564 8.8162076e-39
0.46694949 0.070997968 0.66539091 8.3064699e-39
0.47471213 0.076087892 0.66455966 8.3064685e-39
0.48052853 0.079858601 0.66801089 8.3064699e-39
0.67661142 0.071967788 0.66402054 9.285829e-39
0.68120241 0.07251177 0.66610819 8.8162076e-39
0.48456571 0.082607858 0.66496801 8.398311e-39
0.49250877 0.087860264 0.66558534 9.7773386e-39
0.49741554 0.091020927 0.66390187 9.1337419e-39
0.5050748 0.095777951 0.66500145 8.3064699e-39
0.52331191 0.098776646 0.66857445 8.3983082e-39
0.50008518 0.10190319 0.66543794 8.3064685e-39
0.51541281 0.10215744 0.66527629 9.0419078e-39
0.5247575 0.10736705 0.66428518 8.7660285e-39
0.53445101 0.11252232 0.66514575 8.3064713e-39
0.54376304 0.11748487 0.66446972 8.3064685e-39
0.60933113 0.12942488 0.66458511 3.6806225e-40
0.61270386 0.12246805 0.66156602 1.1430459e-38
0.60718471 0.1350885 0.66479635 2.7626011e-39
0.60581392 0.14499579 0.66492349 8.3883632e-39
0.60739762 0.15167637 0.66388029 1.2077628e-38
0.61174476 0.15488514 0.66428787 1.1801041e-38
0.44515014 0.19645619 0.66459686 1.1706156e-38
0.45254573 0.1915853 0.66496378 1.207494e-38
0.43687248 0.2061332 0.66558397 1.124555e-38
0.44038698 0.20119183 0.66357726 1.1706156e-38
0.42937508 0.21847081 0.66331679 3.1361816e-39
0.43192604 0.2139478 0.66521752 3.1361774e-39
0.42712885 0.22474808 0.66459155 4.3343269e-39
0.42680913 0.23287591 0.66541469 7.7436608e-39
0.43214285 0.23779035 0.66526556 5.9927033e-39
0.43696082 0.24164742 0.66526902 6.4533115e-39
0.44299483 0.24570245 0.66693306 9.0336401e-39
0.45424965 -0.40363052 0.67452842 6.1555104e-39
0.44781971 -0.39377362 0.6753208 6.5228468e-39
0.45156807 -0.39942926 0.67083669 6.2448278e-39
0.43948221 -0.380068 0.67992532 8.4610878e-39
0.44319931 -0.38607836 0.67380953 8.0919493e-39
0.43774617 -0.37617764 0.67478132 9.7475064e-39
0.4290154 -0.36068249 0.67738521 1.0759862e-38
0.43221647 -0.36632362 0.67509896 1.0113418e-38
0.42591813 -0.35452843 0.6749422 1.0669103e-38
0.41903609 -0.34215659 0.67565817 1.0577624e-38
0.42165342 -0.34707814 0.67478305 1.0950714e-38
0.41518939 -0.33570379 0.67541355 1.0305341e-38
0.40853328 -0.32215008 0.67490381 7.4447933e-39
0.41127968 -0.32728276 0.67436916 9.7557614e-39
0.40461397 -0.31480277 0.67518908 6.1529923e-39
0.39852729 -0.30281901 0.67644459 6.2448278e-39
0.40135738 -0.30838835 0.67309266 6.2448278e-39
0.63673091 -0.30284446 0.67519391 2.7673991e-39
0.39754394 -0.29614428 0.6753388 6.8948761e-39
0.40134448 -0.29176188 0.67346013 6.2448278e-39
0.62710738 -0.29312173 0.67551631 2.9517932e-39
0.63168812 -0.29802984 0.67452908 2.9517932e-39
0.40621355 -0.28614321 0.67484945 7.2589657e-39
0.4111166 -0.28131101 0.67444915 6.9863515e-39
0.61935234 -0.28028506 0.67467618 2.9517932e-39
0.62220418 -0.28525004 0.67486674 2.9517932e-39
0.41604632 -0.27835515 0.67495006 8.7456284e-39
0.42510921 -0.27487293 0.67511213 7.8200736e-39
0.43349811 -0.27153116 0.67495942 7.3565731e-39
0.61626995 -0.2747606 0.67529553 5.901661e-39
0.43820161 -0.26892582 0.67344481 8.6527125e-39
0.44271228 -0.26700109 0.67540973 8.0048236e-39
0.60756338 -0.26298502 0.67505521 1.1708845e-38
0.61207271 -0.26833999 0.67553377 1.1708845e-38
0.59887654 -0.25226566 0.67460579 6.1688073e-39
0.6027391 -0.25694227 0.67535216 9.8627646e-39
0.58893126 -0.24006914 0.67129505 5.9836944e-39
0.59339398 -0.24525253 0.67483932 5.8918589e-39
0.58525544 -0.23465152 0.67493331 5.8914988e-39
0.57710755 -0.22426534 0.67468476 5.8918575e-39
0.58136076 -0.22924095 0.67680418 5.8914988e-39
0.56681174 -0.21236306 0.67442966 5.8918589e-39
0.57186931 -0.21761627 0.67596352 5.8914974e-39
0.55784982 -0.20242392 0.67565101 1.1708845e-38
0.56240565 -0.20758861 0.67460799 7.7390183e-39
0.54880255 -0.19266914 0.67515498 2.9517932e-39
0.5527637 -0.19685507 0.67534977 8.4827504e-39
0.54583657 -0.18520679 0.67500806 2.9517932e-39
0.53984916 -0.17051566 0.67626643 2.9517932e-39
0.5419783 -0.17570403 0.67505765 2.9517932e-39
0.53846735 -0.16553284 0.67501116 2.9517932e-39
0.54123336 -0.16097569 0.67414749 2.9517932e-39
0.54633343 -0.1576464 0.67554307 2.9517932e-39
0.5548926 -0.15320098 0.67501515 2.9517932e-39
0.56130916 -0.15052089 0.67645383 2.9517932e-39
0.56536251 -0.14880066 0.67768639 2.9517932e-39
0.57724398 -0.14982544 0.67035151 1.3276171e-38
0.447047 -0.072083861 0.67372721 6.640979e-39
0.45217788 -0.074415915 0.67586112 7.3789056e-39
0.43684745 -0.063274294 0.67501813 5.9005203e-39
0.44149542 -0.06883812 0.67526364 5.9008804e-39
0.70792598 -0.063111015 0.673572 6.6121557e-39
0.71230161 -0.06702096 0.67524266 7.8233036e-39
0.43422794 -0.054166414 0.67467374 7.1001453e-39
0.6980871 -0.052265871 0.67385519 6.4284847e-39
0.70301467 -0.057718817 0.67416376 6.3366492e-39
0.43698391 -0.045748506 0.67477518 7.1948801e-39
0.44134906 -0.041178778 0.67550522 6.3662054e-39
0.68979704 -0.040874649 0.67632198 8.8162076e-39
0.69305199 -0.045427456 0.67484832 8.6325366e-39
0.44656086 -0.037404589 0.67497301 6.0892612e-39
0.45392746 -0.032520566 0.67402434 2.4904241e-39
0.6858331 -0.035166956 0.6750198 8.8162076e-39
0.44759291 -0.026535526 0.6730898 4.6021907e-39
0.45847169 -0.029095706 0.6765275 3.0417902e-39
0.46523231 -0.024278935 0.67497361 4.3364835e-39
0.47284618 -0.020309743 0.67449349 6.3669271e-39
0.67766488 -0.023491357 0.67520452 8.8162076e-39
0.68133634 -0.028760001 0.67582989 8.8162076e-39
0.66915363 -0.01129373 0.67464197 8.8162076e-39
0.6727156 -0.016329363 0.67485952 8.4495943e-39
0.66485149 -0.0049716379 0.67472577 8.8162076e-39
0.65723896 0.0062618316 0.67509854 8.8162076e-39
0.66073018 0.0011778312 0.67409152 8.8162076e-39
0.64831561 0.018560108 0.6748358 8.9112843e-39
0.65225458 0.013506974 0.67499763 8.8162076e-39
0.64408153 0.025132943 0.67538118 8.8162076e-39
0.63917696 0.036477093 0.67722106 9.4594162e-39
0.64139205 0.036187813 0.67359245 9.1835496e-39
0.46298847 0.049234062 0.67394346 3.5034339e-39
0.63944238 0.043061655 0.67340523 9.3675807e-39
0.64287192 0.045218717 0.6771037 9.8263981e-39
0.45188004 0.054787785 0.67552197 7.3806124e-39
0.64789528 0.050972126 0.67512673 8.9080431e-39
0.65603948 0.056551047 0.67539734 8.7243721e-39
0.66350812 0.055712964 0.67836052 1.0141516e-38
0.45688552 0.062617972 0.67610681 8.3064685e-39
0.46277678 0.067912012 0.67523694 8.3064699e-39
0.66587234 0.063788868 0.67490172 8.7243721e-39
0.67398435 0.068458281 0.67384106 8.8162076e-39
0.46777305 0.071509965 0.67440444 8.3064685e-39
0.47429341 0.075647041 0.67491555 8.3064685e-39
0.48225981 0.078042805 0.67330283 8.3064699e-39
0.67813706 0.070427261 0.67197031 8.8162076e-39
0.6828298 0.071780749 0.67431742 8.7243721e-39
0.48527175 0.082894072 0.67527223 8.3064699e-39
0.49265352 0.087703809 0.67492282 9.8695399e-39
0.50671798 0.084568776 0.67494684 7.4728052e-39
0.49826556 0.091425546 0.67520344 8.8582284e-39
0.50447804 0.095464133 0.67495441 8.3064699e-39
0.51081711 0.099505141 0.67477506 8.3064699e-39
0.50387627 0.10069354 0.67667043 9.1337461e-39
0.51593751 0.10268211 0.67569178 9.2259431e-39
0.52421236 0.10736419 0.67520261 8.5823491e-39
0.52957606 0.11022533 0.67333925 8.3064699e-39
0.53547513 0.11346631 0.67536312 8.3064699e-39
0.54191828 0.11689589 0.67392474 8.3064699e-39
0.53769451 0.12143175 0.67503726 9.1298e-39
0.60692549 0.13539687 0.67466342 6.1529923e-39
0.60588652 0.14508387 0.67482609 1.0134321e-38
0.60700798 0.15161893 0.67438966 1.1801041e-38
0.61210108 0.15521796 0.67549998 1.1801041e-38
0.44437739 0.19607098 0.67503697 1.1706515e-38
0.45296463 0.19222595 0.67423844 1.2997248e-38
0.43705487 0.20556241 0.67541647 1.1706156e-38
0.44035578 0.20055223 0.67401391 1.179835e-38
0.42887902 0.21800789 0.67573065 7.8372871e-39
0.43210235 0.21319732 0.67511332 6.8235248e-39
0.41640306 0.22176106 0.67665941 1.1982739e-38
0.42660484 0.22508889 0.67496949 7.6543378e-39
0.4269391 0.23214981 0.67499495 7.9284066e-39
0.4328801 0.23759791 0.67353535 6.0849046e-39
0.4386144 0.24197352 0.67422867 6.9142883e-39
0.44219208 0.24456416 0.67455721 8.2968192e-39
0.45391414 -0.40527415 0.68529934 6.2448278e-39
0.44750351 -0.39482477 0.68536437 6.2448278e-39
0.43963784 -0.38162395 0.68468571 6.6146823e-39
0.44230533 -0.38595974 0.6858747 6.7068765e-39
0.435669 -0.37407103 0.68489105 8.9181143e-39
0.42920649 -0.36242634 0.68506128 1.0667666e-38
0.43191925 -0.36764461 0.68497545 9.6524437e-39
0.42528087 -0.35453469 0.68528241 1.067018e-38
0.41864118 -0.34224746 0.68414301 1.1045418e-38
0.42124146 -0.34725136 0.68448156 1.1043986e-38
0.41464338 -0.33481574 0.68554592 1.086102e-38
0.40831724 -0.32274818 0.68426812 6.8901902e-39
0.41096312 -0.32774967 0.68465894 9.5631165e-39
0.40415651 -0.31460574 0.68564504 6.7979945e-39
0.39948028 -0.3021614 0.68287933 6.1529923e-39
0.40065229 -0.30579555 0.68526536 5.693812e-39
0.63667727 -0.30067223 0.68162727 3.22875e-39
0.64089537 -0.30335835 0.68197721 2.3064098e-39
0.39856309 -0.29480875 0.68477404 6.2448278e-39
0.40000182 -0.29991084 0.68644178 6.2448278e-39
0.62672222 -0.29246652 0.68527913 2.9517946e-39
0.63215137 -0.29723564 0.68418425 3.1361914e-39
0.39882365 -0.28840178 0.68802607 6.2448278e-39
0.40521994 -0.28413966 0.68508512 7.0749359e-39
0.41183296 -0.28109595 0.68465966 6.4306609e-39
0.61983985 -0.28075644 0.68430567 2.9517932e-39
0.62275654 -0.28584608 0.68544841 2.9517932e-39
0.41583204 -0.27782881 0.68565094 7.8193519e-39
0.4248631 -0.27382213 0.68576515 7.9126266e-39
0.43319297 -0.27105814 0.68502963 6.8012441e-39
0.61691117 -0.2750605 0.68548352 6.1782451e-39
0.43807235 -0.26934886 0.68542117 7.0803548e-39
0.44417167 -0.267546 0.68522489 6.6161312e-39
0.60806322 -0.26215437 0.68623602 1.1801041e-38
0.61194295 -0.2671833 0.68459487 1.1801041e-38
0.59920835 -0.25114 0.684412 1.1247145e-38
0.60315335 -0.25605139 0.68479329 1.1708845e-38
0.59444577 -0.24505784 0.68504322 1.0139354e-38
0.58675522 -0.23501883 0.68500245 8.4780253e-39
0.57775038 -0.22314177 0.68470675 8.2010782e-39
0.58179343 -0.22834615 0.68555152 8.7549751e-39
0.56815559 -0.2116631 0.68400115 9.862766e-39
0.57270658 -0.21657865 0.68530869 1.0139354e-38
0.55887753 -0.20148073 0.68523419 1.1708845e-38
0.56337684 -0.20635988 0.68497747 1.1339702e-38
0.54965782 -0.19112889 0.68257499 2.9517932e-39
0.55332136 -0.19536471 0.68532991 7.0076372e-39
0.54618144 -0.18506357 0.68617523 2.9517932e-39
0.53901386 -0.17288673 0.68667746 2.951796e-39
0.54134881 -0.17677484 0.68799943 2.951796e-39
0.53807962 -0.16526118 0.68555617 2.9517932e-39
0.54090571 -0.16055624 0.6853835 2.9517932e-39
0.53675449 -0.15196665 0.68980098 2.9517932e-39
0.54526854 -0.15755901 0.6860615 2.9517932e-39
0.55500591 -0.15250935 0.68436426 2.9517932e-39
0.55965078 -0.14969057 0.68877786 2.9517932e-39
0.56554306 -0.14863996 0.68512106 2.9517932e-39
0.57391888 -0.14701059 0.68477982 2.9517932e-39
0.44588816 -0.071394898 0.68402225 6.0867192e-39
0.45352906 -0.074476659 0.68099082 7.5651073e-39
0.43756384 -0.063699447 0.68479556 6.730281e-39
0.44144395 -0.068379834 0.68563169 6.0849116e-39
0.70674032 -0.063258864 0.68633306 8.4668709e-39
0.71189427 -0.067980312 0.6842683 9.4003529e-39
0.43417582 -0.055227131 0.68518931 7.1005096e-39
0.69846773 -0.053297296 0.68516594 8.9181269e-39
0.70238239 -0.058058176 0.68570536 7.5423951e-39
0.43747526 -0.046450738 0.68487155 6.5505953e-39
0.44144544 -0.041340612 0.6853615 7.2874372e-39
0.68927288 -0.040490635 0.68448126 9.2829479e-39
0.69308007 -0.045940049 0.68511379 9.3776631e-39
0.4464477 -0.03761496 0.6848743 7.2874372e-39
0.45328119 -0.032814637 0.68463224 3.5949583e-39
0.68543553 -0.035039593 0.68466616 9.2836682e-39
0.45865229 -0.028932869 0.68526882 2.4897038e-39
0.46483466 -0.024778252 0.68505937 5.0725995e-39
0.47170582 -0.020962607 0.68448204 8.1164734e-39
0.67729247 -0.023461502 0.68504715 5.9751128e-39
0.681059 -0.028842211 0.68488944 7.0782038e-39
0.47573653 -0.019020824 0.68623298 8.1161147e-39
0.6686613 -0.011053096 0.68424976 6.2498948e-39
0.67263204 -0.016015416 0.68533748 6.2545822e-39
0.65400565 -0.0058506317 0.689551 8.8162076e-39
0.66445726 -0.0050097243 0.68513298 5.3337147e-39
0.65738904 0.0056817406 0.68484563 1.0029516e-38
0.6608187 0.00046495534 0.68416971 7.0803674e-39
0.64857364 0.018587859 0.6848594 1.0123871e-38
0.65219134 0.013444233 0.68468821 1.0030595e-38
0.64366895 0.025392173 0.68521786 1.0310784e-38
0.63882434 0.03396358 0.6853652 1.0589891e-38
0.64130473 0.036707621 0.68488526 1.0675965e-38
0.45636225 0.048711598 0.689601 5.9005203e-39
0.64590746 0.045466777 0.68414712 1.0487252e-38
0.44992805 0.051630348 0.68147469 5.9005203e-39
0.45250294 0.054075778 0.6852482 6.9185707e-39
0.64823931 0.05059424 0.68351942 9.6510102e-39
0.65478623 0.055170409 0.68535548 9.112962e-39
0.45692214 0.062267151 0.68510967 8.2135666e-39
0.46303305 0.067237601 0.68441451 8.3064685e-39
0.66569942 0.06347543 0.68525112 9.022567e-39
0.67279196 0.068685099 0.686795 1.0964798e-38
0.46861109 0.07177788 0.68400317 8.3064699e-39
0.47558612 0.076431721 0.684636 8.3064699e-39
0.67678374 0.071547687 0.68863964 1.1616286e-38
0.47589254 0.080733471 0.6857599 8.3064685e-39
0.48555684 0.083042979 0.68475729 8.6741874e-39
0.49269626 0.08789631 0.68526864 9.9613782e-39
0.48732382 0.094059646 0.68222296 8.5823477e-39
0.49750665 0.09108673 0.68512017 8.3064713e-39
0.50496167 0.095809102 0.68526286 8.3064699e-39
0.51001894 0.098973766 0.68240219 8.3064699e-39
0.51546502 0.10238381 0.68507087 8.3983124e-39
0.52410495 0.10745123 0.68513608 8.3064685e-39
0.5344978 0.11314468 0.68574655 8.3064699e-39
0.54313743 0.11724849 0.68537432 1.0152152e-38
0.60710126 0.13568801 0.68497902 6.2448278e-39
0.60547644 0.14493817 0.68535697 1.0690374e-38
0.60755366 0.15189601 0.6843068 1.1801041e-38
0.61284512 0.15535529 0.68607479 1.1708845e-38
0.45462108 0.18992169 0.68973315 1.1890556e-38
0.44514647 0.19566357 0.68512058 1.2167127e-38
0.45216516 0.19064176 0.68709588 1.2074937e-38
0.43743774 0.20557533 0.68514276 1.1706515e-38
0.44051051 0.20076439 0.68458825 1.1706515e-38
0.42898718 0.21818613 0.68432575 4.6263098e-39
0.43257111 0.21296264 0.68448454 8.764595e-39
0.42626369 0.22424036 0.68481576 7.2898671e-39
0.42817748 0.23244382 0.6844458 6.8221039e-39
0.43257797 0.23780333 0.68539202 6.1767359e-39
0.43696564 0.24113818 0.68934035 5.7157563e-39
0.45850435 -0.41195649 0.69401675 6.2448278e-39
0.46033788 -0.41456646 0.6963284 6.2448278e-39
0.45358932 -0.40445769 0.69501013 6.2448278e-39
0.44732788 -0.39499915 0.69547814 6.2451865e-39
0.43833181 -0.38081381 0.69881177 9.3765757e-39
0.44157544 -0.3859584 0.69445634 7.7228123e-39
0.43543655 -0.37515885 0.69496596 9.8371909e-39
0.42843628 -0.36281392 0.69554281 1.0759862e-38
0.43151221 -0.36817098 0.69480467 1.0481478e-38
0.42446351 -0.35526615 0.69459349 1.0946407e-38
0.41806316 -0.34292752 0.69540823 1.113761e-38
0.42087674 -0.34836999 0.69512445 1.1136541e-38
0.41376182 -0.33465242 0.69583058 1.0489372e-38
0.40812069 -0.32362184 0.69541693 8.8244837e-39
0.41093978 -0.32876566 0.69374305 1.0204892e-38
0.40346628 -0.3147915 0.69502985 6.7972771e-39
0.39978075 -0.30258286 0.69572616 6.2448278e-39
0.40039143 -0.30675378 0.69413102 6.0611554e-39
0.39863026 -0.29471368 0.69441926 6.2448278e-39
0.62766629 -0.29212984 0.69479394 2.9517932e-39
0.63262081 -0.29731771 0.6961875 2.8595975e-39
0.39872897 -0.28841934 0.69495082 6.2448278e-39
0.40468389 -0.28428593 0.69529116 7.1674917e-39
0.41093966 -0.28051713 0.69461733 7.7267976e-39
0.62358171 -0.28504309 0.69509298 2.9517932e-39
0.41552263 -0.27796605 0.69496351 7.8189904e-39
0.42428461 -0.27311411 0.69564819 8.7452669e-39
0.43237484 -0.27072299 0.69262898 1.0319792e-38
0.61749822 -0.274802 0.69443691 4.0581281e-39
0.62054199 -0.27965868 0.69727892 2.9517932e-39
0.43623313 -0.26925182 0.69549018 8.282851e-39
0.4439742 -0.26803052 0.69459003 6.7058059e-39
0.60888016 -0.26180938 0.69531029 1.1801041e-38
0.61252856 -0.2668049 0.69520468 1.1708845e-38
0.62009072 -0.26824087 0.69430792 2.7868057e-39
0.60361642 -0.25506577 0.69500917 1.1708845e-38
0.59574747 -0.24489176 0.69518793 1.1708845e-38
0.58715045 -0.23395006 0.69472748 1.1708845e-38
0.5916909 -0.23820455 0.69491309 1.1339702e-38
0.57824892 -0.22260074 0.69455057 1.1801041e-38
0.58199275 -0.22728042 0.69525504 1.1801041e-38
0.56908506 -0.21089621 0.69516927 1.1155677e-38
0.57324213 -0.21617274 0.69523513 1.1708845e-38
0.56412816 -0.20505852 0.69491273 1.0234089e-38
0.55495918 -0.19486926 0.69483644 4.3343521e-39
0.54738498 -0.1845627 0.69495219 2.951796e-39
0.55068117 -0.18951292 0.69642067 2.9517932e-39
0.53983903 -0.17090061 0.69411796 2.9521561e-39
0.54284531 -0.1759004 0.69326007 2.9521575e-39
0.53906471 -0.16550048 0.69435626 2.9517946e-39
0.54110074 -0.16302489 0.69401371 2.9517946e-39
0.54612517 -0.15688042 0.69449025 2.9517932e-39
0.55347013 -0.15171333 0.69474447 2.9517932e-39
0.55906194 -0.14989422 0.69829798 2.9517932e-39
0.56537139 -0.14826295 0.69499362 2.8606751e-39
0.57391936 -0.14615102 0.69484276 2.9517932e-39
0.4478125 -0.07195884 0.6950227 7.6558568e-39
0.45227796 -0.073946051 0.69650209 7.3807189e-39
0.43777964 -0.062641285 0.69475621 7.744793e-39
0.44218767 -0.068048112 0.6951952 8.113577e-39
0.70771128 -0.062101956 0.69403952 1.2814469e-38
0.71350813 -0.066130221 0.69603252 1.2170179e-38
0.43475512 -0.055019084 0.69474661 7.4689306e-39
0.69796544 -0.052023612 0.69544458 1.2446047e-38
0.7025919 -0.056793801 0.69537795 1.3183614e-38
0.43777603 -0.046570864 0.69522119 5.9966984e-39
0.44130883 -0.041753195 0.69531244 6.0899801e-39
0.45099202 -0.042373314 0.69859147 5.4286975e-39
0.68913263 -0.040090736 0.69341326 1.152445e-38
0.69329351 -0.045458458 0.6954205 1.2077265e-38
0.44622603 -0.03802355 0.69509536 6.0899787e-39
0.45391238 -0.032642633 0.69527394 5.4438974e-39
0.68580312 -0.034682594 0.69547188 1.2353853e-38
0.69029367 -0.038998272 0.69968832 1.4474344e-38
0.45905876 -0.029114898 0.69573152 5.4442561e-39
0.46456581 -0.025242582 0.69510889 5.7208416e-39
0.47105238 -0.0209115 0.69669628 6.0896185e-39
0.67760623 -0.023323243 0.6948024 2.9517932e-39
0.68166733 -0.028139498 0.69680911 6.2704533e-39
0.46751752 -0.011976367 0.69805408 5.2580684e-39
0.47555056 -0.019296708 0.6941722 6.6431524e-39
0.66948336 -0.012289345 0.69327903 2.9517946e-39
0.67305434 -0.015698038 0.69626659 2.9517946e-39
0.69586784 -0.01964359 0.69671619 8.8162076e-39
0.66570449 -0.0053781238 0.69541472 3.1361886e-39
0.65783089 0.0066060936 0.69483185 1.0879083e-38
0.66145056 0.0017818854 0.69643098 9.0355557e-39
0.64910269 0.018890386 0.69348055 1.0786884e-38
0.65292066 0.014292199 0.69576991 1.05103e-38
0.69690865 0.010060098 0.69553274 1.8899748e-38
0.64561766 0.025297863 0.69503534 1.0233714e-38
0.63908547 0.036903471 0.69313812 1.1247867e-38
0.64150685 0.034237195 0.69648653 9.864931e-39
0.45455682 0.049256466 0.69500476 6.2693028e-39
0.64529759 0.04533327 0.69568449 1.1432254e-38
0.65068984 0.04990422 0.69880784 1.0417743e-38
0.70928997 0.047437631 0.69944668 5.165266e-39
0.44999793 0.052732639 0.69441634 5.9005203e-39
0.45187327 0.055170931 0.69572723 7.6579083e-39
0.63707024 0.050352477 0.69049323 8.9080431e-39
0.64939475 0.050847396 0.69274986 1.0233714e-38
0.65538687 0.054859854 0.69555426 9.0351717e-39
0.66137141 0.058704782 0.69734544 9.0351717e-39
0.45669141 0.062743597 0.69468385 8.2142757e-39
0.46217164 0.067801803 0.69505966 8.3064699e-39
0.66595602 0.062666416 0.69468504 9.4039542e-39
0.67487335 0.06731163 0.69520944 1.2353854e-38
0.6828258 0.06973283 0.69736373 1.3183972e-38
0.6908806 0.069131263 0.69149482 1.3460558e-38
0.46741667 0.071386591 0.69450402 8.3064699e-39
0.47460395 0.076133087 0.69502544 8.3064685e-39
0.48031867 0.079932392 0.69695514 8.3064699e-39
0.67814255 0.07151641 0.69098306 1.3644589e-38
0.68463552 0.072581016 0.69494671 1.4382514e-38
0.48488963 0.083008923 0.69438243 8.3064713e-39
0.49284428 0.088101327 0.69529235 8.3064685e-39
0.498072 0.091458105 0.6941781 8.3064685e-39
0.50462669 0.095639072 0.69489247 8.3064685e-39
0.51120305 0.099707507 0.69604927 8.3064699e-39
0.52300346 0.098800488 0.69222176 8.8546382e-39
0.51603645 0.10265193 0.69474459 8.3064685e-39
0.52480251 0.10767707 0.69490397 8.4901395e-39
0.6355772 0.10644529 0.69788933 1.226274e-38
0.52960449 0.11033044 0.69379187 8.3064685e-39
0.53463256 0.11288593 0.69367665 9.2284122e-39
0.54112524 0.11450761 0.6911875 1.1997835e-38
0.60757852 0.13490646 0.69495493 1.0597818e-38
0.60581702 0.14466582 0.69547266 1.1708485e-38
0.60703874 0.15170287 0.6959278 1.1801041e-38
0.61284858 0.15557107 0.69708002 1.1801041e-38
0.45421165 0.18973395 0.69553018 1.1982385e-38
0.44420293 0.19607411 0.69492191 1.179835e-38
0.45250028 0.19121411 0.69269371 1.1890544e-38
0.46184066 0.19574307 0.69278479 1.9724184e-38
0.43682608 0.205456 0.69528073 1.1706515e-38
0.44050497 0.20098259 0.69141996 1.2259321e-38
0.42817816 0.21757886 0.6954087 4.6263084e-39
0.43164694 0.21289179 0.69447201 9.4077882e-39
0.42521521 0.22465856 0.6952219 8.7613622e-39
0.4284969 0.23333703 0.69446445 5.4395338e-39
0.43295184 0.23802929 0.69538558 5.0711142e-39
0.43850642 0.24210195 0.69335139 6.0848877e-39
0.44069952 0.24315286 0.69758368 7.0061098e-39
0.46486032 -0.42090437 0.70345509 6.2448278e-39
0.44879004 -0.4146542 0.70063686 1.0578345e-38
0.45851034 -0.41134089 0.70295471 6.2448278e-39
0.46216348 -0.41676474 0.70435798 6.2448278e-39
0.45646828 -0.40839052 0.70100385 6.2448278e-39
0.44569302 -0.39398062 0.7073043 6.7072366e-39
0.43862614 -0.38209832 0.70537746 9.5667109e-39
0.44154224 -0.38694644 0.70477563 8.7380348e-39
0.43489778 -0.37545612 0.70476013 9.8411383e-39
0.42792419 -0.3632009 0.70632774 1.0852416e-38
0.43096137 -0.36840111 0.70430231 1.0390003e-38
0.42353833 -0.35485616 0.70487213 1.0856365e-38
0.41801724 -0.34414065 0.70486778 1.1137969e-38
0.42021984 -0.34873486 0.70787024 1.1137258e-38
0.41314125 -0.33467519 0.70518249 1.1139759e-38
0.40759754 -0.32394701 0.70500028 9.8511969e-39
0.41012284 -0.32910734 0.70687699 1.1327388e-38
0.40298554 -0.31500071 0.70586461 6.7079597e-39
0.39849052 -0.30467463 0.70587331 6.2448278e-39
0.40029585 -0.30928546 0.70703441 6.1529923e-39
0.62305325 -0.30105731 0.70751941 2.9517932e-39
0.63706034 -0.300859 0.70243382 2.9517932e-39
0.39700711 -0.29320553 0.7058 6.2448278e-39
0.6284703 -0.29138103 0.7037344 2.8599577e-39
0.63341373 -0.29645738 0.70500565 2.8599577e-39
0.39911443 -0.28956175 0.70129788 6.2448278e-39
0.40504715 -0.28545731 0.70497549 6.9827417e-39
0.41095504 -0.28061154 0.70490152 6.2448278e-39
0.42402756 -0.28186497 0.70347297 7.4480457e-39
0.62440795 -0.28510675 0.70528007 2.8603164e-39
0.41600248 -0.2776587 0.70465225 7.8197121e-39
0.42516685 -0.2726742 0.70503056 7.4484086e-39
0.44964257 -0.27161968 0.70011228 9.1835706e-39
0.61760443 -0.27394366 0.70489055 3.5060375e-39
0.6206333 -0.2790162 0.70456761 2.8606751e-39
0.43338558 -0.26812065 0.70619416 6.2448278e-39
0.44216251 -0.26699358 0.70386273 7.0713486e-39
0.60948324 -0.26086098 0.70363128 1.1801041e-38
0.61274737 -0.26577461 0.70538265 1.0604665e-38
0.59951609 -0.25685436 0.70854825 1.1708845e-38
0.60522979 -0.25491178 0.70513457 1.0881609e-38
0.59665626 -0.24376421 0.70500624 1.1065279e-38
0.60052884 -0.24899296 0.70406109 1.1341144e-38
0.58802557 -0.23306014 0.70460618 1.124931e-38
0.59221303 -0.23808716 0.70512795 1.1157473e-38
0.57829994 -0.22128309 0.70399386 1.1525175e-38
0.58254051 -0.22623843 0.7051791 1.1249309e-38
0.56973124 -0.21065599 0.70368856 3.5971556e-39
0.57389599 -0.21554047 0.70547169 8.944802e-39
0.56551385 -0.20504025 0.70525748 3.4134846e-39
0.55650127 -0.19410206 0.70459521 2.8599577e-39
0.56089705 -0.19913815 0.70590901 2.8603164e-39
0.5481531 -0.18268557 0.70407283 2.9517932e-39
0.55190301 -0.18693139 0.70618868 2.8599577e-39
0.5393827 -0.1711134 0.70221525 2.9517946e-39
0.54389602 -0.17530064 0.70567811 2.9517932e-39
0.53951198 -0.16738953 0.70254225 2.9517932e-39
0.54081267 -0.16388838 0.70572978 2.9517932e-39
0.55198169 -0.16824077 0.70528674 2.8664247e-39
0.54459685 -0.15612821 0.705374 2.9517932e-39
0.55518895 -0.15142997 0.7049641 2.9517932e-39
0.56532669 -0.14855027 0.70415241 2.9517932e-39
0.57480133 -0.14599219 0.70445472 2.9517932e-39
0.58053607 -0.14521848 0.70909393 2.9517932e-39
0.44950464 -0.071000382 0.70160425 6.7328187e-39
0.45382208 -0.071877293 0.70324665 5.6185118e-39
0.72133142 -0.071520723 0.70256084 1.2262016e-38
0.43863747 -0.062183157 0.70245653 5.8076016e-39
0.444603 -0.065423295 0.7061438 5.2471999e-39
0.4547478 -0.068424568 0.70803303 5.796757e-39
0.46403056 -0.063816048 0.70873439 6.4406816e-39
0.47264731 -0.061935332 0.70445275 6.1658996e-39
0.70916176 -0.060148306 0.70072621 1.2722997e-38
0.71483004 -0.062254999 0.70311028 1.2262015e-38
0.72200662 -0.061352622 0.70392418 1.7792669e-38
0.43725237 -0.054347087 0.70422029 5.0649765e-39
0.44147018 -0.055848319 0.70862663 4.7847728e-39
0.47513565 -0.057745725 0.70833462 6.1648164e-39
0.4836275 -0.052288484 0.70850772 6.4410404e-39
0.69950354 -0.051677752 0.70036268 1.4290321e-38
0.70559818 -0.054164954 0.70357966 1.4290318e-38
0.71475375 -0.054756347 0.70693874 1.7332776e-38
0.72473675 -0.053879578 0.70649928 1.5672896e-38
0.73140669 -0.051353246 0.70648515 1.5581061e-38
0.43829647 -0.047030084 0.70392603 4.141937e-39
0.44373217 -0.043663401 0.70677155 4.5096307e-39
0.45013124 -0.040785097 0.70949471 4.7847728e-39
0.46133998 -0.0489439 0.7082181 6.7346264e-39
0.48966539 -0.049184538 0.70611751 6.7169056e-39
0.49186814 -0.044479638 0.70735812 6.7169056e-39
0.69688588 -0.044629212 0.70197862 1.4382517e-38
0.70535856 -0.044763811 0.70445442 1.843876e-38
0.71542102 -0.04521066 0.70573944 1.5581061e-38
0.72512835 -0.045049284 0.70610648 1.4935692e-38
0.73476064 -0.044250656 0.7064153 1.5581061e-38
0.74424046 -0.042876814 0.70466298 1.7240221e-38
0.75379038 -0.041867845 0.70172203 1.9268527e-38
0.44795707 -0.038598571 0.70401853 4.2348543e-39
0.45507705 -0.034910921 0.70567888 4.5103566e-39
0.46238881 -0.031575192 0.70828074 4.6925786e-39
0.47778383 -0.039353251 0.70764017 5.8076016e-39
0.49170184 -0.036654346 0.70945752 6.6250701e-39
0.68841594 -0.032746825 0.70158017 1.290775e-38
0.69472748 -0.035408072 0.70333081 1.6963994e-38
0.7052483 -0.035303306 0.70499033 1.6687406e-38
0.71575505 -0.03462695 0.70541739 1.4935692e-38
0.72532064 -0.035007086 0.70609933 1.5027888e-38
0.7354362 -0.03518245 0.70605761 1.7701558e-38
0.74539089 -0.034639254 0.7065751 1.889974e-38
0.75402135 -0.034458682 0.70480758 1.8161813e-38
0.46613061 -0.026557123 0.70505345 4.3266884e-39
0.47450647 -0.023201857 0.70624363 4.969527e-39
0.48351565 -0.024071183 0.70741916 5.5216162e-39
0.67873114 -0.020865574 0.70072764 3.3209512e-39
0.68520015 -0.024291793 0.70292228 7.2853563e-39
0.69494396 -0.025286168 0.70524687 1.6779975e-38
0.70536858 -0.025397716 0.70567185 1.5304475e-38
0.71563691 -0.024886405 0.70553166 1.5120083e-38
0.72562772 -0.025229305 0.70580846 1.6687406e-38
0.73535722 -0.024655046 0.70647001 1.9084131e-38
0.74472296 -0.025593638 0.70698631 1.889974e-38
0.7518 -0.027343987 0.70642549 1.9268525e-38
0.47705406 -0.01955067 0.70048505 5.5295728e-39
0.67669898 -0.014190459 0.70259374 3.8748621e-39
0.6848377 -0.01523195 0.70528477 4.5202539e-39
0.69473702 -0.014550805 0.70632648 6.0872097e-39
0.70486933 -0.014838227 0.70616001 1.2815952e-38
0.71525359 -0.015135336 0.70590115 1.5857647e-38
0.72532159 -0.015411935 0.70609856 1.9176328e-38
0.73426139 -0.015039012 0.70708561 1.9268525e-38
0.74408656 -0.015688859 0.70408493 1.7055823e-38
0.66834664 -0.0028191002 0.70129848 3.8741404e-39
0.67443115 -0.0057566925 0.7044245 4.0588988e-39
0.68450034 -0.0054362379 0.70659494 4.8890477e-39
0.69455063 -0.0049699969 0.70651132 4.8890463e-39
0.70466703 -0.0051817605 0.70635706 5.1656304e-39
0.71484381 -0.0045095803 0.70629525 1.0972446e-38
0.72470266 -0.0046992358 0.70668578 1.9084501e-38
0.73356801 -0.005417625 0.70642447 1.7609382e-38
0.74054623 -0.0041837953 0.70284963 1.4566956e-38
0.65931273 0.0092482828 0.70075452 1.097128e-38
0.66562343 0.0052762572 0.70351672 9.2203295e-39
0.675044 0.0046866089 0.70630312 4.7050095e-39
0.68478751 0.0047298511 0.70646596 4.889405e-39
0.69462341 0.0045981263 0.70643955 4.8890477e-39
0.70465881 0.0044635697 0.70636487 4.9812419e-39
0.71482146 0.0052113901 0.70631665 4.8890449e-39
0.72448987 0.0047937823 0.70647913 8.0229466e-39
0.73184967 0.0037888614 0.70524949 1.0051228e-38
0.65657997 0.016001308 0.70259911 1.3644952e-38
0.66475499 0.014781362 0.70512581 1.6595223e-38
0.67486286 0.015386037 0.70586073 9.313286e-39
0.68510628 0.015088783 0.70614511 4.889405e-39
0.69470096 0.015038646 0.70636207 4.8890449e-39
0.70462292 0.01498567 0.7064001 4.9812419e-39
0.714881 0.014930491 0.70625991 4.8890477e-39
0.723037 0.013006219 0.70594877 4.9812447e-39
0.64791948 0.026691524 0.70195788 1.4013013e-38
0.65531832 0.025246369 0.7035082 1.6687409e-38
