# .PCD v0.7 - Point Cloud Data file format
VERSION 0.7
FIELDS x y z rgb
SIZE 4 4 4 4
TYPE F F F F
COUNT 1 1 1 1
WIDTH 961
HEIGHT 1
VIEWPOINT 0 0 0 1 0 0 0
POINTS 961
DATA ascii
1.5855875 0.1950147 -5.364418e-07 5.3473465e-39
1.5942483 0.19553931 -4.7683716e-07 5.3473465e-39
1.6023849 0.19526631 -5.9604645e-07 5.3473465e-39
1.6146727 0.19485593 -4.1723251e-07 5.3473465e-39
1.6264334 0.19520696 -0.00065551396 5.3473465e-39
1.6362542 0.19361313 -0.00076210656 5.3473465e-39
1.6443567 0.19469392 -4.7683716e-07 5.3473465e-39
1.6564021 0.19540751 -4.7683716e-07 5.3473465e-39
1.6654984 0.19594641 -3.5762787e-07 5.3473465e-39
1.6746578 0.19452851 -4.1723251e-07 5.3473465e-39
1.6838683 0.19506803 -4.7683716e-07 5.3473465e-39
1.6931428 0.19561133 -4.1723251e-07 5.3473465e-39
1.7055956 0.19435965 -4.7683716e-07 5.3473465e-39
1.7150006 0.19490433 -4.7683716e-07 5.3473465e-39
1.7246525 0.19607151 -0.00042804261 5.2551509e-39
1.7339972 0.19400442 -5.9604645e-07 5.3473465e-39
1.7435896 0.19455355 -4.7683716e-07 5.2551509e-39
1.7564709 0.19529095 -4.1723251e-07 5.2551509e-39
1.7662009 0.19584799 -5.9604645e-07 5.2551509e-39
1.7760005 0.19438095 -4.7683716e-07 5.2551509e-39
1.7858564 0.19493861 -4.7683716e-07 5.2551509e-39
1.7957836 0.19550031 -4.7683716e-07 5.2551509e-39
1.8057683 0.19401744 -4.7683716e-07 5.2551509e-39
1.8158255 0.19457978 -4.7683716e-07 5.2551509e-39
1.8259412 0.19514541 -3.5762787e-07 5.2551509e-39
1.836131 0.19571519 -5.364418e-07 5.2551509e-39
1.8463806 0.19421344 -5.9604645e-07 5.2551509e-39
1.8532537 0.19459319 -4.7683716e-07 5.2551509e-39
1.8636241 0.19516616 -4.7683716e-07 5.2551509e-39
1.874056 0.1957425 -3.5762787e-07 5.2551509e-39
1.8845657 0.19422288 -5.364418e-07 5.2551509e-39
1.8951377 0.19479996 -3.5762787e-07 5.2551509e-39
1.9057889 0.19538133 -4.1723251e-07 5.2551509e-39
1.9165038 0.19596621 -4.7683716e-07 5.2551509e-39
1.92369 0.19635846 -4.7683716e-07 5.2551509e-39
1.9345345 0.19481687 -4.7683716e-07 5.2551509e-39
1.9454447 0.19540513 -5.9604645e-07 5.2551509e-39
1.952762 0.193654 -3.5762787e-07 5.2551509e-39
1.9638053 0.19424208 -4.7683716e-07 5.2551509e-39
1.974916 0.19483376 -5.9604645e-07 5.2551509e-39
1.9861116 0.19542995 -4.1723251e-07 5.2551509e-39
1.9973763 0.19602984 -5.9604645e-07 5.2551509e-39
2.0049322 0.1964322 -3.5762787e-07 5.2551509e-39
2.0125234 0.19465102 -4.7683716e-07 5.2551509e-39
2.0239804 0.19525354 -5.9604645e-07 5.2551509e-39
2.0355091 0.19365901 -3.5762787e-07 5.2551509e-39
2.0432427 0.19406056 -3.5762787e-07 5.2551509e-39
2.0549159 0.19466665 -5.364418e-07 5.2551509e-39
2.0666621 0.19527653 -4.7683716e-07 5.2551509e-39
2.0745423 0.19568568 -3.5762787e-07 5.2551509e-39
2.0824597 0.19609678 -3.5762787e-07 5.2551509e-39
2.0952108 0.19541326 -5.4836272e-07 5.2551509e-39
2.1064386 0.19509383 -4.7683716e-07 5.2551509e-39
2.1145084 0.19325411 -5.9604645e-07 5.2551509e-39
2.1226161 0.19366428 -4.7683716e-07 5.2551509e-39
2.1348562 0.19428352 -4.7683716e-07 5.2551509e-39
2.2933443 0.1999291 -5.9604645e-07 5.2551509e-39
1.5486387 0.20403649 -3.5762787e-07 5.3473465e-39
1.5570823 0.20458169 -4.1723251e-07 5.3473465e-39
1.5655712 0.20512982 -4.7683716e-07 5.3473465e-39
1.5741167 0.20568158 -5.364418e-07 5.3473465e-39
1.5855874 0.204521 -5.364418e-07 5.3473465e-39
1.5942483 0.20507446 -4.7683716e-07 5.3473465e-39
1.6035507 0.20452006 -5.9604645e-07 5.3473465e-39
1.6146727 0.20445903 -4.1723251e-07 5.3473465e-39
1.6264735 0.20520528 -4.7683716e-07 5.3473465e-39
1.6353844 0.20576881 -4.7683716e-07 5.3473465e-39
1.6443567 0.2043958 -4.7683716e-07 5.3473465e-39
1.6564021 0.20514953 -4.7683716e-07 5.3473465e-39
1.6654984 0.20571868 -3.5762787e-07 5.3473465e-39
1.6746577 0.20433128 -4.1723251e-07 5.3473465e-39
1.6838683 0.20490146 -4.7683716e-07 5.3473465e-39
1.6931428 0.20547558 -4.1723251e-07 5.3473465e-39
1.7055955 0.20426539 -4.7683716e-07 5.3473465e-39
1.7150006 0.20484135 -4.7683716e-07 5.3473465e-39
1.724472 0.20542139 -4.1723251e-07 5.2551509e-39
1.7339972 0.20400466 -5.9604645e-07 5.2551509e-39
1.7435898 0.20458573 -4.7683716e-07 5.2551509e-39
1.7564708 0.20536602 -4.1723251e-07 5.2551509e-39
1.7662009 0.20595543 -5.9604645e-07 5.2551509e-39
1.7760005 0.20452102 -4.7683716e-07 5.2551509e-39
1.7858564 0.20511147 -4.7683716e-07 5.2551509e-39
1.7957836 0.20570624 -4.7683716e-07 5.2551509e-39
1.8057684 0.20425658 -4.7683716e-07 5.2551509e-39
1.8158255 0.20485239 -4.7683716e-07 5.2551509e-39
1.8259412 0.20545168 -3.5762787e-07 5.2551509e-39
1.8354496 0.20518689 -5.4836272e-07 5.2551509e-39
1.8463805 0.20458773 -5.9604645e-07 5.2551509e-39
1.8532536 0.20499036 -4.7683716e-07 5.2551509e-39
1.8636241 0.20559783 -4.7683716e-07 5.2551509e-39
1.874056 0.20620891 -3.5762787e-07 5.2551509e-39
1.8845657 0.2047243 -5.364418e-07 5.2551509e-39
1.8951377 0.20533653 -3.5762787e-07 5.2551509e-39
1.9050766 0.20506541 -4.053116e-07 5.2551509e-39
1.9165038 0.20445237 -4.7683716e-07 5.2551509e-39
1.92369 0.20486376 -4.7683716e-07 5.2551509e-39
1.9345344 0.20548457 -4.7683716e-07 5.2551509e-39
1.9454447 0.20610915 -5.9604645e-07 5.2551509e-39
1.952762 0.20438236 -3.5762787e-07 5.2551509e-39
1.9638053 0.20500721 -4.7683716e-07 5.2551509e-39
1.974916 0.20563589 -5.9604645e-07 5.2551509e-39
1.9861116 0.20410144 -4.1723251e-07 5.2551509e-39
1.9973763 0.20473133 -5.9604645e-07 5.2551509e-39
2.0049322 0.20515382 -3.5762787e-07 5.2551509e-39
2.0125234 0.2055783 -4.7683716e-07 5.2551509e-39
2.0239806 0.20621894 -5.9604645e-07 5.2551509e-39
2.0355091 0.2046628 -3.5762787e-07 5.2551509e-39
2.0432427 0.20509009 -3.5762787e-07 5.2551509e-39
2.0541351 0.20480537 -5.2452089e-07 5.2551509e-39
2.0666621 0.20416251 -4.7683716e-07 5.2551509e-39
2.0745423 0.20459265 -3.5762787e-07 5.2551509e-39
2.0824597 0.20502481 -3.5762787e-07 5.2551509e-39
2.0944114 0.2056772 -5.364418e-07 5.2551509e-39
2.1064386 0.2063337 -4.7683716e-07 5.2551509e-39
2.1145084 0.20452082 -5.9604645e-07 5.2551509e-39
2.1226161 0.20495796 -4.7683716e-07 5.2551509e-39
2.1340375 0.20466597 -4.7683716e-07 5.2551509e-39
2.2927847 0.20505185 -7.7733646e-05 5.2551509e-39
1.5486387 0.21529646 -3.5762787e-07 5.3473465e-39
1.5570823 0.2158754 -4.1723251e-07 5.3473465e-39
1.5655711 0.21456951 -4.7683716e-07 5.3473465e-39
1.5741167 0.2151497 -5.364418e-07 5.3473465e-39
1.5855875 0.21402729 -5.364418e-07 5.3473465e-39
1.5942483 0.21460958 -4.7683716e-07 5.3473465e-39
1.6029679 0.21519583 -5.9604645e-07 5.3473465e-39
1.614085 0.21517423 -4.053116e-07 5.3473465e-39
1.6264735 0.21484767 -4.7683716e-07 5.3473465e-39
1.6353844 0.21544084 -4.7683716e-07 5.3473465e-39
1.6443567 0.21409769 -4.7683716e-07 5.3473465e-39
1.6564021 0.21489151 -4.7683716e-07 5.3473465e-39
1.6654984 0.21549095 -3.5762787e-07 5.3473465e-39
1.6740456 0.21526918 -4.053116e-07 5.3473465e-39
1.6838683 0.21473487 -4.7683716e-07 5.3473465e-39
1.6931428 0.2153399 -4.1723251e-07 5.3473465e-39
1.7055955 0.2141711 -4.7683716e-07 5.3473465e-39
1.7150006 0.21477838 -4.7683716e-07 5.2551509e-39
1.724472 0.21538995 -4.1723251e-07 5.2551509e-39
1.7339972 0.21400492 -5.9604645e-07 5.2551509e-39
1.7435896 0.21461792 -4.7683716e-07 5.2551509e-39
1.7564709 0.21544106 -4.1723251e-07 5.2551509e-39
1.7662009 0.21606286 -5.9604645e-07 5.2551509e-39
1.7760004 0.21466108 -4.7683716e-07 5.2551509e-39
1.7858564 0.21528435 -4.7683716e-07 5.2551509e-39
1.7951199 0.2150528 -5.0067899e-07 5.2551509e-39
1.8057683 0.21449569 -4.7683716e-07 5.2551509e-39
1.8158255 0.21512499 -4.7683716e-07 5.2551509e-39
1.8259412 0.21575797 -3.5762787e-07 5.2551509e-39
1.8368123 0.21519601 -5.2452089e-07 5.2551509e-39
1.8463806 0.21496202 -5.9604645e-07 5.2551509e-39
1.8532537 0.21538752 -4.7683716e-07 5.2551509e-39
1.8629307 0.21515115 -4.7683716e-07 5.2551509e-39
1.874056 0.21458206 -3.5762787e-07 5.2551509e-39
1.8845657 0.2152257 -5.364418e-07 5.2551509e-39
1.8951377 0.21587312 -3.5762787e-07 5.2551509e-39
1.9065011 0.21529894 -4.2915343e-07 5.2551509e-39
1.9165038 0.21506006 -4.7683716e-07 5.2551509e-39
1.92369 0.21549536 -4.7683716e-07 5.2551509e-39
1.9345344 0.21401875 -4.7683716e-07 5.2551509e-39
1.9454447 0.21467237 -5.9604645e-07 5.2551509e-39
1.952762 0.21511075 -3.5762787e-07 5.2551509e-39
1.9638053 0.21577233 -4.7683716e-07 5.2551509e-39
1.974916 0.21643797 -5.9604645e-07 5.2551509e-39
1.9861116 0.21494083 -4.1723251e-07 5.2551509e-39
1.9973763 0.21560819 -5.9604645e-07 5.2551509e-39
2.0049322 0.21387541 -3.5762787e-07 5.2551509e-39
2.0125234 0.21432012 -4.7683716e-07 5.2551509e-39
2.0239806 0.21499127 -5.9604645e-07 5.2551509e-39
2.0355091 0.21566658 -3.5762787e-07 5.2551509e-39
2.0432427 0.2161196 -3.5762787e-07 5.2551509e-39
2.0556962 0.21551935 -5.4836272e-07 5.2551509e-39
2.0666621 0.21526997 -4.7683716e-07 5.2551509e-39
2.0762098 0.21280245 -0.00044214967 5.2551509e-39
2.0824597 0.21395284 -3.5762787e-07 5.2551509e-39
2.0944114 0.21463704 -5.364418e-07 5.2551509e-39
2.1064386 0.21532558 -4.7683716e-07 5.2551509e-39
2.1145084 0.21578753 -5.9604645e-07 5.2551509e-39
2.1226161 0.21625167 -4.7683716e-07 5.2551509e-39
2.135675 0.21563749 -4.7683716e-07 5.2551509e-39
2.1471751 0.21993271 -4.7683716e-07 5.2551509e-39
1.5486386 0.2246798 -3.5762787e-07 5.3473465e-39
1.5570823 0.22528684 -4.1723251e-07 5.3473465e-39
1.5655712 0.22400917 -4.7683716e-07 5.3473465e-39
1.5741167 0.22461785 -5.364418e-07 5.3473465e-39
1.5855875 0.22543485 -5.364418e-07 5.3473465e-39
1.5942483 0.22605173 -4.7683716e-07 5.3473465e-39
1.6029679 0.22475997 -5.9604645e-07 5.3473465e-39
1.6152604 0.22447376 -4.2915343e-07 5.3473465e-39
1.6264735 0.22449005 -4.7683716e-07 5.3473465e-39
1.6353844 0.22511287 -4.7683716e-07 5.3473465e-39
1.6443567 0.22574002 -4.7683716e-07 5.3473465e-39
1.6564021 0.2246335 -4.7683716e-07 5.3473465e-39
1.6654984 0.22526322 -3.5762787e-07 5.3473465e-39
1.6752703 0.22476217 -4.2915343e-07 5.3473465e-39
1.6838683 0.22456829 -4.7683716e-07 5.3473465e-39
1.6931428 0.22520417 -4.1723251e-07 5.2551509e-39
1.7049704 0.2252218 -4.7683716e-07 5.2551509e-39
1.7150006 0.22471541 -4.7683716e-07 5.2551509e-39
1.724472 0.22535849 -4.1723251e-07 5.2551509e-39
1.7339972 0.22400518 -5.9604645e-07 5.2551509e-39
1.7435898 0.22465008 -4.7683716e-07 5.2551509e-39
1.7564708 0.22551613 -4.1723251e-07 5.2551509e-39
1.7662009 0.22414881 -5.9604645e-07 5.2551509e-39
1.7760005 0.22480112 -4.7683716e-07 5.2551509e-39
1.7855607 0.22415185 -0.0022377137 5.2551509e-39
1.7964474 0.22493616 -4.5299529e-07 5.2551509e-39
1.8057684 0.22473484 -4.7683716e-07 5.2551509e-39
1.8158255 0.2253976 -4.7683716e-07 5.2551509e-39
1.8259412 0.22400299 -3.5762787e-07 5.2551509e-39
1.8361309 0.22466771 -5.364418e-07 5.2551509e-39
1.8463805 0.22533634 -5.9604645e-07 5.2551509e-39
1.8544146 0.22609507 -0.00062919623 5.2551509e-39
1.8643177 0.22525327 -4.7683716e-07 5.2551509e-39
1.874056 0.22504847 -3.5762787e-07 5.2551509e-39
1.8838631 0.22484064 -5.4836272e-07 5.2551509e-39
1.8951377 0.22430238 -3.5762787e-07 5.2551509e-39
1.9057889 0.22498302 -4.1723251e-07 5.2551509e-39
1.9165038 0.22566774 -4.7683716e-07 5.2551509e-39
1.92369 0.22612698 -4.7683716e-07 5.2551509e-39
1.9345344 0.22468644 -4.7683716e-07 5.2551509e-39
1.9454447 0.22537638 -5.9604645e-07 5.2551509e-39
1.952762 0.22369343 -3.5762787e-07 5.2551509e-39
1.9638053 0.22438444 -4.7683716e-07 5.2551509e-39
1.974916 0.22507966 -5.9604645e-07 5.2551509e-39
1.9861115 0.22578019 -4.1723251e-07 5.2551509e-39
1.9973763 0.22648506 -5.9604645e-07 5.2551509e-39
2.0049322 0.22477742 -3.5762787e-07 5.2551509e-39
2.0125234 0.2252474 -4.7683716e-07 5.2551509e-39
2.0239806 0.2237636 -5.9604645e-07 5.2551509e-39
2.0355091 0.2244696 -3.5762787e-07 5.2551509e-39
2.0432427 0.22494322 -3.5762787e-07 5.2551509e-39
2.0549159 0.2256581 -5.364418e-07 5.2551509e-39
2.0666621 0.22637744 -4.7683716e-07 5.2551509e-39
2.0745423 0.22463329 -3.5762787e-07 5.2551509e-39
2.0824597 0.2251129 -3.5762787e-07 5.2551509e-39
2.0944114 0.22359692 -5.364418e-07 5.2551509e-39
2.1064386 0.22431746 -4.7683716e-07 5.2551509e-39
2.1145084 0.22480091 -5.9604645e-07 5.2551509e-39
2.1226161 0.22528663 -4.7683716e-07 5.2551509e-39
2.1348562 0.22601996 -4.7683716e-07 5.2551509e-39
2.1471751 0.22448288 -4.7683716e-07 5.2551509e-39
1.5486388 0.23406315 -5.9604645e-07 5.3473465e-39
1.5570823 0.23469828 -4.1723251e-07 5.3473465e-39
1.5655712 0.2353368 -4.7683716e-07 5.3473465e-39
1.5741167 0.23597957 -5.364418e-07 5.3473465e-39
1.5855875 0.23494115 -5.364418e-07 5.3473465e-39
1.5942483 0.23558687 -4.7683716e-07 5.3473465e-39
1.6029679 0.23432414 -5.9604645e-07 5.3473465e-39
1.6146727 0.23518898 -4.1723251e-07 5.3473465e-39
1.6258812 0.23524496 -4.7683716e-07 5.3473465e-39
1.6353844 0.23478493 -4.7683716e-07 5.3473465e-39
1.6443567 0.23544189 -5.364418e-07 5.3473465e-39
1.6564021 0.23437552 -4.9670535e-07 5.3473465e-39
1.6654984 0.23503549 -3.9736429e-07 5.3473465e-39
1.6746578 0.23570009 -4.1723251e-07 5.3473465e-39
1.6838683 0.23440169 -4.7683716e-07 5.3473465e-39
1.6931428 0.23506846 -4.1723251e-07 5.2551509e-39
1.7062206 0.23481873 -4.7683716e-07 5.2551509e-39
1.7150006 0.23465241 -4.7683716e-07 5.2551509e-39
1.724472 0.23532705 -4.1723251e-07 5.2551509e-39
1.7339972 0.23400544 -5.9604645e-07 5.2551509e-39
1.7435896 0.23468228 -4.7683716e-07 5.2551509e-39
1.7564709 0.23559117 -4.1723251e-07 5.2551509e-39
1.7662009 0.23425625 -5.9604645e-07 5.2551509e-39
1.7760005 0.23494118 -4.7683716e-07 5.2551509e-39
1.7858564 0.23563008 -4.7683716e-07 5.2551509e-39
1.7957836 0.23428275 -4.7683716e-07 5.2551509e-39
1.8057683 0.23497397 -4.7683716e-07 5.2551509e-39
1.8158255 0.23567022 -4.7683716e-07 5.2551509e-39
1.8259412 0.23430926 -3.5762787e-07 5.2551509e-39
1.836131 0.23500793 -5.364418e-07 5.2551509e-39
1.8465323 0.23632672 -0.0014535437 5.2551509e-39
1.8532536 0.23410246 -4.7683716e-07 5.2551509e-39
1.8636241 0.2348066 -4.7683716e-07 5.2551509e-39
1.874056 0.23551488 -3.5762787e-07 5.2551509e-39
1.8852684 0.2350146 -5.2452089e-07 5.2551509e-39
1.8951377 0.23483896 -3.5762787e-07 5.2551509e-39
1.9050766 0.23466046 -4.053116e-07 5.2551509e-39
1.9165038 0.23415391 -4.7683716e-07 5.2551509e-39
1.92369 0.23463227 -4.7683716e-07 5.2551509e-39
1.9345344 0.23535416 -4.7683716e-07 5.2551509e-39
1.9454447 0.23608041 -5.9604645e-07 5.2551509e-39
1.952762 0.2344218 -3.5762787e-07 5.2551509e-39
1.9638053 0.23514958 -4.7683716e-07 5.2551509e-39
1.974916 0.23372135 -5.9604645e-07 5.2551509e-39
1.9861115 0.23445168 -4.1723251e-07 5.2551509e-39
1.9973763 0.23518655 -5.9604645e-07 5.2551509e-39
2.0049322 0.23567945 -3.5762787e-07 5.2551509e-39
2.0125234 0.23617467 -4.7683716e-07 5.2551509e-39
2.0239804 0.23472901 -5.9604645e-07 5.2551509e-39
2.0342982 0.23528564 -0.0012052204 5.2551509e-39
2.0432427 0.23376684 -3.5762787e-07 5.2551509e-39
2.0549159 0.23451279 -5.364418e-07 5.2551509e-39
2.0666621 0.23526341 -4.7683716e-07 5.2551509e-39
2.0745423 0.23576699 -3.5762787e-07 5.2551509e-39
2.0824597 0.23627295 -3.5762787e-07 5.2551509e-39
2.0944114 0.23479675 -5.364418e-07 5.2551509e-39
2.1064386 0.23330936 -4.7683716e-07 5.2551509e-39
2.1145084 0.23381428 -5.9604645e-07 5.2551509e-39
2.1226161 0.23432159 -4.7683716e-07 5.2551509e-39
2.1348562 0.2350875 -4.7683716e-07 5.2551509e-39
2.1720922 0.23970911 -4.7683716e-07 5.2551509e-39
2.1860971 0.23445754 -5.5631e-07 5.2551509e-39
2.1973751 0.23438245 -4.7683716e-07 5.2551509e-39
1.5486388 0.24532314 -5.9604645e-07 5.3473465e-39
1.5570823 0.24599199 -4.1723251e-07 5.3473465e-39
1.5655711 0.24477649 -4.7683716e-07 5.3473465e-39
1.5741167 0.24544771 -5.364418e-07 5.3473465e-39
1.5855874 0.24444747 -5.364418e-07 5.3473465e-39
1.5942483 0.245122 -4.7683716e-07 5.3473465e-39
1.6029679 0.24580109 -5.9604645e-07 5.3473465e-39
1.6146727 0.24479207 -4.1723251e-07 5.3473465e-39
1.6270659 0.24459079 -4.7683716e-07 5.3473465e-39
1.6353844 0.24445696 -4.7683716e-07 5.3473465e-39
1.6443567 0.24514382 -5.9604645e-07 5.3473465e-39
1.6557974 0.24523947 -5.2452089e-07 5.3473465e-39
1.6654986 0.24480778 -4.7683716e-07 5.3473465e-39
1.6746578 0.24550284 -4.1723251e-07 5.2551509e-39
1.6838683 0.2442351 -4.7683716e-07 5.2551509e-39
1.6931429 0.24493276 -4.7683716e-07 5.2551509e-39
1.7049704 0.24502909 -4.7683716e-07 5.2551509e-39
1.7150006 0.24458948 -4.7683716e-07 5.2551509e-39
1.724472 0.24529561 -4.7683716e-07 5.2551509e-39
1.7351304 0.243174 -0.0013190912 5.2551509e-39
1.7435898 0.24471448 -5.1657361e-07 5.2551509e-39
1.7564708 0.24566625 -4.9670535e-07 5.2551509e-39
1.7662009 0.2443637 -5.9604645e-07 5.2551509e-39
1.7760005 0.24508125 -4.7683716e-07 5.2551509e-39
1.7858565 0.24580294 -5.364418e-07 5.2551509e-39
1.7957836 0.24448866 -4.9670535e-07 5.2551509e-39
1.8057684 0.24521309 -4.7683716e-07 5.2551509e-39
1.8151531 0.24507132 -4.7683716e-07 5.2551509e-39
1.8259412 0.24461553 -3.5762787e-07 5.2551509e-39
1.8361309 0.24534808 -5.364418e-07 5.2551509e-39
1.8463805 0.24608496 -5.9604645e-07 5.2551509e-39
1.8532537 0.24449964 -4.7683716e-07 5.2551509e-39
1.8636242 0.24523829 -4.7683716e-07 5.2551509e-39
1.874056 0.24388802 -3.5762787e-07 5.2551509e-39
1.8845657 0.24462959 -5.364418e-07 5.2551509e-39
1.8951377 0.24537554 -3.5762787e-07 5.2551509e-39
1.9065011 0.24490729 -4.2915343e-07 5.2551509e-39
1.9165038 0.2447616 -4.7683716e-07 5.2551509e-39
1.92369 0.24526387 -4.7683716e-07 5.2551509e-39
1.9345345 0.24388832 -4.7683716e-07 5.2551509e-39
1.9454447 0.24464363 -5.9604645e-07 5.2551509e-39
1.952762 0.24515018 -3.5762787e-07 5.2551509e-39
1.9638053 0.2459147 -4.7683716e-07 5.2551509e-39
1.974916 0.24452347 -5.9604645e-07 5.2551509e-39
1.9861116 0.24529107 -4.1723251e-07 5.2551509e-39
1.9973763 0.24388805 -5.9604645e-07 5.2551509e-39
2.0049322 0.24440107 -3.5762787e-07 5.2551509e-39
2.0125234 0.2449165 -4.7683716e-07 5.2551509e-39
2.0239806 0.24569441 -5.9604645e-07 5.2551509e-39
2.0355091 0.24647716 -3.5762787e-07 5.2551509e-39
2.0432427 0.24479635 -3.5762787e-07 5.2551509e-39
2.0541351 0.24464217 -5.2452089e-07 5.2551509e-39
2.0666621 0.24414939 -4.7683716e-07 5.2551509e-39
2.0745423 0.24467395 -3.5762787e-07 5.2551509e-39
2.0824597 0.24520099 -3.5762787e-07 5.2551509e-39
2.0944114 0.24599656 -5.364418e-07 5.2551509e-39
2.1064386 0.24454921 -4.7683716e-07 5.2551509e-39
2.1145084 0.24508099 -5.9604645e-07 5.2551509e-39
2.1226161 0.24335656 -4.7683716e-07 5.2551509e-39
2.1348562 0.24415506 -4.7683716e-07 5.2551509e-39
2.1471751 0.24723376 -4.7683716e-07 5.2551509e-39
2.1720922 0.24658412 -4.7683716e-07 5.2551509e-39
2.1846926 0.24510606 -5.364418e-07 5.2551509e-39
2.1973751 0.24130796 -4.7683716e-07 5.2551509e-39
1.5486388 0.25470644 -5.9604645e-07 5.3473465e-39
1.5570824 0.2554034 -4.1723251e-07 5.3473465e-39
1.5655712 0.25421616 -4.7683716e-07 5.3473465e-39
1.5741167 0.2549158 -5.364418e-07 5.3473465e-39
1.5855874 0.25585499 -5.364418e-07 5.3473465e-39
1.5942483 0.25465712 -4.7683716e-07 5.3473465e-39
1.6029679 0.25536525 -5.9604645e-07 5.3473465e-39
1.6146727 0.25439516 -4.1723251e-07 5.3473465e-39
1.6264734 0.25534567 -4.7683716e-07 5.3473465e-39
1.6353844 0.2560634 -4.7683716e-07 5.3473465e-39
1.6443567 0.25484571 -5.9604645e-07 5.3473465e-39
1.657007 0.25468597 -5.4836272e-07 5.2551509e-39
1.6654986 0.25458005 -4.7683716e-07 5.2551509e-39
1.6746578 0.25530562 -4.1723251e-07 5.2551509e-39
1.6838683 0.25603521 -4.7683716e-07 5.2551509e-39
1.6931429 0.25479704 -4.7683716e-07 5.2551509e-39
1.7062209 0.25463432 -4.7683716e-07 5.2551509e-39
1.7150006 0.2545265 -4.7683716e-07 5.2551509e-39
1.7244722 0.25526416 -4.7683716e-07 5.2551509e-39
1.7339972 0.25400594 -5.9604645e-07 5.2551509e-39
1.7435899 0.25474665 -5.364418e-07 5.2551509e-39
1.756471 0.2557413 -5.364418e-07 5.2551509e-39
1.7662009 0.25447112 -5.9604645e-07 5.2551509e-39
1.7760004 0.25522128 -4.7683716e-07 5.2551509e-39
1.7858566 0.25394124 -5.9604645e-07 5.2551509e-39
1.7957836 0.25469455 -5.364418e-07 5.2551509e-39
1.8057683 0.25545222 -4.7683716e-07 5.2551509e-39
1.8164978 0.25503239 -4.7683716e-07 5.2551509e-39
1.8259412 0.25492179 -3.5762787e-07 5.2551509e-39
1.8354496 0.2548089 -5.4836272e-07 5.2551509e-39
1.8463806 0.25438443 -7.1525574e-07 5.2551509e-39
1.8532536 0.25489682 -4.7683716e-07 5.2551509e-39
1.8636242 0.25566998 -5.364418e-07 5.2551509e-39
1.8740562 0.25435445 -5.1657361e-07 5.2551509e-39
1.8845657 0.25513098 -5.7617825e-07 5.2551509e-39
1.8951378 0.2538048 -4.7683716e-07 5.2551509e-39
1.9057889 0.25458473 -4.7683716e-07 5.2551509e-39
1.9165038 0.25536928 -4.7683716e-07 5.2551509e-39
1.9236901 0.2558955 -5.364418e-07 5.2551509e-39
1.9345345 0.25455603 -4.7683716e-07 5.2551509e-39
1.9454447 0.25534764 -5.9604645e-07 5.2551509e-39
1.952762 0.25373289 -3.5762787e-07 5.2551509e-39
1.9638053 0.25452679 -4.7683716e-07 5.2551509e-39
1.974916 0.25532556 -5.9604645e-07 5.2551509e-39
1.9861115 0.25613046 -4.1723251e-07 5.2551509e-39
1.9973763 0.25476488 -5.9604645e-07 5.2551509e-39
2.0049322 0.25530308 -3.5762787e-07 5.2551509e-39
2.0125234 0.25365832 -4.7683716e-07 5.2551509e-39
2.0239806 0.25446677 -5.9604645e-07 5.2551509e-39
2.0355091 0.2552802 -3.5762787e-07 5.2551509e-39
2.0432427 0.25582588 -3.5762787e-07 5.2551509e-39
2.0556962 0.25537485 -5.4836272e-07 5.2551509e-39
2.0666621 0.25525686 -4.7683716e-07 5.2551509e-39
2.0745423 0.2535809 -3.5762787e-07 5.2551509e-39
2.0824597 0.25412902 -3.5762787e-07 5.2551509e-39
2.0944114 0.25495642 -5.364418e-07 5.2551509e-39
2.1064386 0.25578907 -4.7683716e-07 5.2551509e-39
2.1145084 0.25634772 -5.9604645e-07 5.2551509e-39
2.1226161 0.25465026 -4.7683716e-07 5.2551509e-39
2.1340377 0.25452551 -4.7683716e-07 5.2551509e-39
2.1471751 0.25405902 -4.7683716e-07 5.2551509e-39
2.1720922 0.25575083 -4.7683716e-07 5.2551509e-39
2.1846926 0.25660637 -5.364418e-07 5.2551509e-39
1.5486388 0.26408979 -5.9604645e-07 5.3473465e-39
1.5570823 0.26481482 -4.1723251e-07 5.3473465e-39
1.5655712 0.26554379 -4.7683716e-07 5.3473465e-39
1.5735455 0.26547033 -5.2452089e-07 5.3473465e-39
1.5845232 0.26588753 -0.001190047 5.3473465e-39
1.5942483 0.26419225 -4.7683716e-07 5.3473465e-39
1.6029679 0.26492938 -5.9604645e-07 5.3473465e-39
1.614085 0.26510018 -4.053116e-07 5.3473465e-39
1.6264734 0.26498806 -4.7683716e-07 5.3473465e-39
1.6353844 0.26573545 -4.7683716e-07 5.3473465e-39
1.6443567 0.26454762 -5.9604645e-07 5.2551509e-39
1.6564021 0.26554987 -5.364418e-07 5.2551509e-39
1.6654986 0.26435232 -4.7683716e-07 5.2551509e-39
1.6746578 0.26510835 -4.1723251e-07 5.2551509e-39
1.6838683 0.2658686 -4.7683716e-07 5.2551509e-39
1.6931429 0.26466128 -4.7683716e-07 5.2551509e-39
1.7055954 0.26568088 -4.7683716e-07 5.2551509e-39
1.7150006 0.26446354 -4.7683716e-07 5.2551509e-39
1.7244722 0.26523271 -4.7683716e-07 5.2551509e-39
1.7339972 0.2640062 -5.9604645e-07 5.2551509e-39
1.7435899 0.26477882 -5.364418e-07 5.2551509e-39
1.7558241 0.26495737 -5.2452089e-07 5.2551509e-39
1.7662009 0.26457858 -5.9604645e-07 5.2551509e-39
1.7760005 0.26536134 -4.7683716e-07 5.2551509e-39
1.7858566 0.26411408 -5.9604645e-07 5.2551509e-39
1.7957836 0.26490045 -5.364418e-07 5.2551509e-39
1.8057684 0.26569137 -4.7683716e-07 5.2551509e-39
1.8158255 0.2644335 -4.7683716e-07 5.2551509e-39
1.8259412 0.26522809 -3.5762787e-07 5.2551509e-39
1.8368123 0.2648398 -5.2452089e-07 5.2551509e-39
1.8463806 0.26475871 -7.1525574e-07 5.2551509e-39
1.8532537 0.26529399 -4.7683716e-07 5.2551509e-39
1.8629309 0.26521224 -5.4836272e-07 5.2551509e-39
1.8740562 0.26482087 -5.9604645e-07 5.2551509e-39
1.8845658 0.26563239 -5.9604645e-07 5.2551509e-39
1.8951378 0.26434141 -5.9604645e-07 5.2551509e-39
1.9057888 0.26515675 -5.364418e-07 5.2551509e-39
1.9165038 0.26385546 -4.7683716e-07 5.2551509e-39
1.9236902 0.26440081 -5.9604645e-07 5.2551509e-39
1.9345344 0.26522374 -4.7683716e-07 5.2551509e-39
1.9454447 0.26605165 -5.9604645e-07 5.2551509e-39
1.9527622 0.26446128 -5.9604645e-07 5.2551509e-39
1.9638056 0.26529196 -5.9604645e-07 5.2551509e-39
1.974916 0.26396728 -5.9604645e-07 5.2551509e-39
1.9861116 0.26480195 -4.1723251e-07 5.2551509e-39
1.9973763 0.26564178 -5.9604645e-07 5.2551509e-39
2.0049324 0.26620513 -5.9604645e-07 5.2551509e-39
2.0125234 0.26458561 -4.7683716e-07 5.2551509e-39
2.0232143 0.26449731 -5.9604645e-07 5.2551509e-39
2.0355091 0.26408321 -4.7683716e-07 5.2551509e-39
2.0432427 0.26464951 -3.5762787e-07 5.2551509e-39
2.0549159 0.26550424 -5.6624413e-07 5.2551509e-39
2.0666621 0.26636434 -4.7683716e-07 5.2551509e-39
2.0745423 0.26471463 -4.3710074e-07 5.2551509e-39
2.0824597 0.26528907 -3.5762787e-07 5.2551509e-39
2.0944114 0.26391628 -5.364418e-07 5.2551509e-39
2.1064386 0.26478094 -4.7683716e-07 5.2551509e-39
2.1145084 0.26536107 -5.9604645e-07 5.2551509e-39
2.1226161 0.26594397 -4.7683716e-07 5.2551509e-39
2.135675 0.26552102 -4.7683716e-07 5.2551509e-39
2.1471751 0.26088428 -4.7683716e-07 5.2551509e-39
2.1637464 0.26661479 -5.9604645e-07 5.2551509e-39
2.1720922 0.26491752 -4.7683716e-07 5.2551509e-39
2.1846924 0.26580662 -5.364418e-07 5.2551509e-39
2.1973751 0.26901001 -4.7683716e-07 5.2551509e-39
0.51249367 0.27956632 -5.1657361e-07 3.1346514e-39
0.5272007 0.27929729 -4.7683716e-07 3.1346514e-39
0.5306288 0.2797879 -4.7683716e-07 3.1346514e-39
0.54563981 0.27951822 -5.9604645e-07 3.1346514e-39
1.5486388 0.27534977 -5.9604645e-07 5.3473465e-39
1.556518 0.27530417 -4.2915343e-07 5.3473465e-39
1.5655711 0.27498347 -4.7683716e-07 5.3473465e-39
1.574688 0.27465937 -5.4836272e-07 5.3473465e-39
1.5855874 0.27486765 -5.364418e-07 5.3473465e-39
1.5942483 0.27563441 -4.7683716e-07 5.3473465e-39
1.6023849 0.2755889 -5.9604645e-07 5.3473465e-39
1.6152604 0.27442008 -4.2915343e-07 5.3473465e-39
1.6264735 0.27463046 -4.7683716e-07 5.3473465e-39
1.6353844 0.27540749 -4.7683716e-07 5.2551509e-39
1.6437569 0.27536067 -5.9604645e-07 5.2551509e-39
1.6564021 0.27529192 -5.364418e-07 5.2551509e-39
1.6654986 0.27412459 -4.7683716e-07 5.2551509e-39
1.6746577 0.27491111 -4.1723251e-07 5.2551509e-39
1.6838683 0.275702 -4.7683716e-07 5.2551509e-39
1.6931429 0.27452558 -4.7683716e-07 5.2551509e-39
1.7055955 0.27558661 -4.7683716e-07 5.2551509e-39
1.7150006 0.27440056 -4.7683716e-07 5.2551509e-39
1.724472 0.27520129 -4.7683716e-07 5.2551509e-39
1.7339972 0.27400646 -5.9604645e-07 5.2551509e-39
1.7435898 0.27481103 -5.364418e-07 5.2551509e-39
1.7571179 0.27473539 -5.4836272e-07 5.2551509e-39
1.7662009 0.27468604 -5.9604645e-07 5.2551509e-39
1.7760581 0.27547678 -0.00079689769 5.2551509e-39
1.7861773 0.27346307 -0.00096096261 5.2551509e-39
1.7957838 0.27510637 -5.364418e-07 5.2551509e-39
1.8057683 0.27593052 -4.7683716e-07 5.2551509e-39
1.8158255 0.27470613 -4.7683716e-07 5.2551509e-39
1.8259412 0.27553436 -3.5762787e-07 5.2551509e-39
1.8361309 0.27430063 -5.364418e-07 5.2551509e-39
1.8463806 0.27513304 -7.1525574e-07 5.2551509e-39
1.8532536 0.27569118 -4.7683716e-07 5.2551509e-39
1.8643177 0.2753365 -5.2452089e-07 5.2551509e-39
1.8740562 0.2752873 -5.9604645e-07 5.2551509e-39
1.8845658 0.27403349 -5.9604645e-07 5.2551509e-39
1.8951378 0.27487803 -5.9604645e-07 5.2551509e-39
1.9057889 0.27572882 -5.364418e-07 5.2551509e-39
1.9165038 0.27446318 -4.7683716e-07 5.2551509e-39
1.9236902 0.27503243 -5.9604645e-07 5.2551509e-39
1.9338093 0.27497965 -4.7683716e-07 5.2551509e-39
1.9454447 0.2746149 -5.9604645e-07 5.2551509e-39
1.9527622 0.27518967 -5.9604645e-07 5.2551509e-39
1.9638054 0.27605706 -5.9604645e-07 5.2551509e-39
1.974916 0.27476937 -5.9604645e-07 5.2551509e-39
1.985363 0.27471489 -4.053116e-07 5.2551509e-39
1.9973763 0.27434328 -5.9604645e-07 5.2551509e-39
2.0049324 0.27492672 -5.9604645e-07 5.2551509e-39
2.0125234 0.27551287 -4.7683716e-07 5.2551509e-39
2.0247467 0.27513933 -5.9604645e-07 5.2551509e-39
2.0355091 0.27508703 -5.9604645e-07 5.2551509e-39
2.0432427 0.27347308 -3.5762787e-07 5.2551509e-39
2.0549159 0.27435896 -5.9604645e-07 5.2551509e-39
2.0666621 0.27525035 -4.7683716e-07 5.2551509e-39
2.0745423 0.2758483 -5.9604645e-07 5.2551509e-39
2.0824597 0.27644911 -3.5762787e-07 5.2551509e-39
2.0944116 0.27511612 -5.9604645e-07 5.2551509e-39
2.1064391 0.27377287 -5.9604645e-07 5.2551509e-39
2.1145084 0.27437446 -5.9604645e-07 5.2551509e-39
2.1226163 0.27497897 -5.9604645e-07 5.2551509e-39
2.1348562 0.27589148 -4.7683716e-07 5.2551509e-39
2.1471751 0.27908498 -4.7683716e-07 5.2551509e-39
2.1554408 0.27970678 -5.9604645e-07 5.2551509e-39
2.1637464 0.27347314 -5.9604645e-07 5.2551509e-39
2.1720922 0.27408421 -4.7683716e-07 5.2551509e-39
2.1846926 0.27500689 -5.6624413e-07 5.2551509e-39
2.1973753 0.27593556 -5.364418e-07 5.2551509e-39
2.2058856 0.27655867 -4.7683716e-07 5.2551509e-39
0.50447851 0.28466353 -4.8384948e-07 3.1346514e-39
0.51485163 0.28511229 -4.9954372e-07 3.1346514e-39
0.52492499 0.28494769 -4.7683716e-07 3.1346514e-39
0.53511697 0.28477883 -5.2225022e-07 3.1346514e-39
0.54584843 0.28523728 -5.6799718e-07 3.4112383e-39
0.55382752 0.2843225 -5.1657361e-07 4.8863684e-39
1.5486388 0.28473312 -5.9604645e-07 5.3473465e-39
1.5576468 0.2844421 -4.053116e-07 5.3473465e-39
1.5655712 0.28442314 -4.7683716e-07 5.3473465e-39
1.5741167 0.28521383 -5.364418e-07 5.3473465e-39
1.5844579 0.28539369 -0.0012720573 5.3473465e-39
1.5946404 0.2859652 -0.0020833311 5.3473465e-39
1.6035507 0.28487521 -5.9604645e-07 5.3473465e-39
1.6146727 0.28512514 -4.1723251e-07 5.2551509e-39
1.6258812 0.28537512 -4.7683716e-07 5.2551509e-39
1.6353844 0.28507954 -4.7683716e-07 5.2551509e-39
1.6449566 0.28478068 -5.9604645e-07 5.2551509e-39
1.6564021 0.28503388 -5.364418e-07 5.2551509e-39
1.6662914 0.2861951 -0.00014468731 5.2551509e-39
1.6746578 0.28471386 -4.1723251e-07 5.2551509e-39
1.6838683 0.28553542 -4.7683716e-07 5.2551509e-39
1.6931429 0.28438988 -4.7683716e-07 5.2551509e-39
1.7055956 0.28549233 -4.7683716e-07 5.2551509e-39
1.7150006 0.28433758 -4.7683716e-07 5.2551509e-39
1.724472 0.28516984 -4.7683716e-07 5.2551509e-39
1.7339972 0.28400674 -5.9604645e-07 5.2551509e-39
1.7435899 0.28484324 -5.364418e-07 5.2551509e-39
1.7558241 0.2851032 -5.2452089e-07 5.2551509e-39
1.7662009 0.28479347 -5.9604645e-07 5.2551509e-39
1.7760005 0.28564149 -4.7683716e-07 5.2551509e-39
1.7858566 0.28445983 -5.9604645e-07 5.2551509e-39
1.7957836 0.28531227 -5.364418e-07 5.2551509e-39
1.8057683 0.28412181 -4.7683716e-07 5.2551509e-39
1.8158255 0.28497875 -4.7683716e-07 5.2551509e-39
1.8259412 0.28584063 -3.5762787e-07 5.2551509e-39
1.836131 0.28464079 -5.364418e-07 5.2551509e-39
1.8463806 0.28550735 -7.1525574e-07 5.2551509e-39
1.8532536 0.28400892 -4.7683716e-07 5.2551509e-39
1.8636242 0.28487873 -5.364418e-07 5.2551509e-39
1.8740562 0.2857537 -5.9604645e-07 5.2551509e-39
1.8845658 0.28453493 -5.9604645e-07 5.2551509e-39
1.8951378 0.28541458 -5.9604645e-07 5.2551509e-39
1.9057889 0.28418642 -5.364418e-07 5.2551509e-39
1.9165038 0.28507087 -4.7683716e-07 5.2551509e-39
1.9236902 0.28566405 -5.9604645e-07 5.2551509e-39
1.9352596 0.28533739 -4.7683716e-07 5.2551509e-39
1.9454447 0.28531891 -5.9604645e-07 5.2551509e-39
1.9537107 0.28389838 -0.0016743933 5.2551509e-39
1.9638054 0.28466916 -5.9604645e-07 5.2551509e-39
1.974916 0.28557149 -5.9604645e-07 5.2551509e-39
1.9868603 0.28523928 -4.2915343e-07 5.2551509e-39
1.9973763 0.28522015 -5.9604645e-07 5.2551509e-39
2.0049324 0.28364834 -5.9604645e-07 5.2551509e-39
2.0125234 0.2842547 -4.7683716e-07 5.2551509e-39
2.0239806 0.2851699 -5.9604645e-07 5.2551509e-39
2.0355091 0.28609082 -5.9604645e-07 5.2551509e-39
2.0432427 0.28450263 -3.5762787e-07 5.2551509e-39
2.0541353 0.28447896 -5.9604645e-07 5.2551509e-39
2.0666621 0.28413633 -4.7683716e-07 5.2551509e-39
2.0745423 0.28475526 -5.9604645e-07 5.2551509e-39
2.0824597 0.28537714 -3.5762787e-07 5.2551509e-39
2.0944116 0.28631595 -5.9604645e-07 5.2551509e-39
2.1064391 0.28501272 -5.9604645e-07 5.2551509e-39
2.1145084 0.28338784 -5.9604645e-07 5.2551509e-39
2.1226163 0.2840139 -5.9604645e-07 5.2551509e-39
2.1348562 0.28495905 -4.7683716e-07 5.2551509e-39
2.1471751 0.28591028 -4.7683716e-07 5.2551509e-39
2.1554408 0.2865485 -5.9604645e-07 5.2551509e-39
2.1637464 0.2826176 -5.9604645e-07 5.2551509e-39
2.1720922 0.28325093 -4.7683716e-07 5.2551509e-39
2.1846926 0.28420711 -5.9604645e-07 5.2551509e-39
2.1973753 0.28516957 -5.9604645e-07 5.2551509e-39
2.2058856 0.28350121 -4.7683716e-07 5.2551509e-39
0.50467426 0.29498017 -4.7683716e-07 3.1346514e-39
0.51495916 0.29509035 -4.9954372e-07 3.1346514e-39
0.52472442 0.29482985 -4.6982484e-07 3.1346514e-39
0.53522635 0.29486907 -5.2792683e-07 3.1346514e-39
0.54564279 0.29523578 -5.6624413e-07 3.4112383e-39
0.55364692 0.29447773 -5.1351697e-07 4.978564e-39
1.5486388 0.29411647 -5.9604645e-07 5.3473465e-39
1.5570823 0.29493141 -4.1723251e-07 5.3473465e-39
1.5655712 0.29575077 -4.7683716e-07 5.3473465e-39
1.5741167 0.29468197 -5.364418e-07 5.3473465e-39
1.5861633 0.29469481 -5.4836272e-07 5.3473465e-39
1.5942483 0.29470468 -4.7683716e-07 5.3473465e-39
1.6029679 0.2955347 -5.9604645e-07 5.2551509e-39
1.6146727 0.29472822 -4.1723251e-07 5.2551509e-39
1.6270659 0.29474145 -4.7683716e-07 5.2551509e-39
1.6353844 0.29475158 -4.7683716e-07 5.2551509e-39
1.6443567 0.29559374 -5.9604645e-07 5.2551509e-39
1.6564021 0.2947759 -5.364418e-07 5.2551509e-39
1.6654986 0.2956236 -4.7683716e-07 5.2551509e-39
1.6746578 0.29451665 -4.1723251e-07 5.2551509e-39
1.6838683 0.29536885 -4.7683716e-07 5.2551509e-39
1.6925228 0.2953797 -5.0067899e-07 5.2551509e-39
1.7055955 0.29539806 -4.7683716e-07 5.2551509e-39
1.7150006 0.29427463 -4.7683716e-07 5.2551509e-39
1.7244722 0.29513836 -4.7683716e-07 5.2551509e-39
1.7339972 0.29400697 -5.9604645e-07 5.2551509e-39
1.7435898 0.29487538 -5.364418e-07 5.2551509e-39
1.7571179 0.29488981 -5.4836272e-07 5.2551509e-39
1.7662009 0.29490089 -5.9604645e-07 5.2551509e-39
1.7753452 0.29491058 -4.5299529e-07 5.2551509e-39
1.7858566 0.2946327 -5.9604645e-07 5.2551509e-39
1.7957838 0.29551816 -5.364418e-07 5.2551509e-39
1.8057684 0.29436094 -4.7683716e-07 5.2551509e-39
1.8158255 0.29525134 -4.7683716e-07 5.2551509e-39
1.8259412 0.29408565 -3.5762787e-07 5.2551509e-39
1.8361309 0.294981 -5.364418e-07 5.2551509e-39
1.8463806 0.29588166 -7.1525574e-07 5.2551509e-39
1.8532537 0.29440609 -4.7683716e-07 5.2551509e-39
1.8636242 0.29531044 -5.364418e-07 5.2551509e-39
1.8740562 0.29412684 -5.9604645e-07 5.2551509e-39
1.8845658 0.29503632 -5.9604645e-07 5.2551509e-39
1.8951378 0.29595119 -5.9604645e-07 5.2551509e-39
1.9057888 0.29475847 -5.364418e-07 5.2551509e-39
1.9165038 0.29567856 -4.7683716e-07 5.2551509e-39
1.9236902 0.29416934 -5.9604645e-07 5.2551509e-39
1.9345344 0.29509333 -4.7683716e-07 5.2551509e-39
1.9454447 0.29602292 -5.9604645e-07 5.2551509e-39
1.9527622 0.29450077 -5.9604645e-07 5.2551509e-39
1.9630668 0.29450971 -5.9604645e-07 5.2551509e-39
1.974916 0.29421318 -5.9604645e-07 5.2551509e-39
1.9861116 0.29515219 -4.1723251e-07 5.2551509e-39
1.9973763 0.29609701 -5.9604645e-07 5.2551509e-39
2.0049324 0.29455036 -5.9604645e-07 5.2551509e-39
2.0125234 0.29518199 -4.7683716e-07 5.2551509e-39
2.0239806 0.29394221 -5.9604645e-07 5.2551509e-39
2.0355091 0.29489383 -5.9604645e-07 5.2551509e-39
2.0432427 0.29553217 -3.5762787e-07 5.2551509e-39
2.0556965 0.29523039 -5.9604645e-07 5.2551509e-39
2.0666621 0.29524377 -4.7683716e-07 5.2551509e-39
2.0745423 0.29366222 -5.9604645e-07 5.2551509e-39
2.0824597 0.29430521 -3.5762787e-07 5.2551509e-39
2.0944116 0.29527581 -5.9604645e-07 5.2551509e-39
2.1064391 0.29625258 -5.9604645e-07 5.2551509e-39
2.1145084 0.29465455 -5.9604645e-07 5.2551509e-39
2.1226163 0.29530761 -5.9604645e-07 5.2551509e-39
2.1348562 0.29402661 -4.7683716e-07 5.2551509e-39
2.1471751 0.29501063 -4.7683716e-07 5.2551509e-39
2.1554408 0.29567087 -5.9604645e-07 5.2551509e-39
2.1637464 0.29633433 -5.9604645e-07 5.2551509e-39
2.1720922 0.2947093 -4.7683716e-07 5.2551509e-39
2.1838498 0.29471955 -5.9604645e-07 5.2551509e-39
2.195401 0.29458353 -0.0011564781 5.2551509e-39
2.2490716 0.29377839 -4.7683716e-07 5.2551509e-39
2.2578382 0.29680407 -5.9604645e-07 5.2551509e-39
0.50487107 0.3053 -4.6982484e-07 3.1346514e-39
0.51474452 0.30484864 -5.0067899e-07 3.1346514e-39
0.52485794 0.3049733 -4.8384948e-07 3.1346514e-39
0.53533626 0.30496103 -5.2225022e-07 3.1346514e-39
0.54564279 0.3049078 -5.6624413e-07 3.4112383e-39
0.5538274 0.30496728 -5.1351697e-07 4.978564e-39
1.5486388 0.30537644 -5.9604645e-07 5.3473465e-39
1.5565178 0.30541474 -4.2915343e-07 5.3473465e-39
1.5655711 0.30519044 -4.7683716e-07 5.3473465e-39
1.5741167 0.3041501 -5.364418e-07 5.3473465e-39
1.5855874 0.30528784 -5.364418e-07 5.2551509e-39
1.5942483 0.3061468 -4.7683716e-07 5.2551509e-39
1.6029679 0.30509886 -5.9604645e-07 5.2551509e-39
1.6146727 0.3043313 -4.1723251e-07 5.2551509e-39
1.6264734 0.30548608 -4.7683716e-07 5.2551509e-39
1.6353844 0.30442363 -4.7683716e-07 5.2551509e-39
1.6443567 0.30529565 -5.9604645e-07 5.2551509e-39
1.6564022 0.30451789 -5.364418e-07 5.2551509e-39
1.6654986 0.30539587 -4.7683716e-07 5.2551509e-39
1.6740456 0.30543581 -4.053116e-07 5.2551509e-39
1.6838683 0.30520228 -4.7683716e-07 5.2551509e-39
1.6937628 0.30496579 -4.5299529e-07 5.2551509e-39
1.7055956 0.30530378 -4.7683716e-07 5.2551509e-39
1.7150006 0.30421165 -4.7683716e-07 5.2551509e-39
1.7244722 0.30510694 -4.7683716e-07 5.2551509e-39
1.7339972 0.30400723 -5.9604645e-07 5.2551509e-39
1.7435898 0.30490759 -5.364418e-07 5.2551509e-39
1.7558241 0.30524904 -5.2452089e-07 5.2551509e-39
1.7662009 0.30500835 -5.9604645e-07 5.2551509e-39
1.7766558 0.30476457 -5.0067899e-07 5.2551509e-39
1.7858566 0.30480555 -5.9604645e-07 5.2551509e-39
1.79512 0.3048453 -5.4836272e-07 5.2551509e-39
1.8057683 0.30460006 -4.7683716e-07 5.2551509e-39
1.8158255 0.30552393 -4.7683716e-07 5.2551509e-39
1.8259412 0.30439192 -3.5762787e-07 5.2551509e-39
1.836131 0.30532122 -5.364418e-07 5.2551509e-39
1.8463806 0.30418107 -7.1525574e-07 5.2551509e-39
1.8532536 0.30480328 -4.7683716e-07 5.2551509e-39
1.8636242 0.30574214 -5.364418e-07 5.2551509e-39
1.8740562 0.30459327 -5.9604645e-07 5.2551509e-39
1.8838631 0.3046335 -5.9604645e-07 5.2551509e-39
1.8951378 0.30438045 -5.9604645e-07 5.2551509e-39
1.9057889 0.30533049 -5.364418e-07 5.2551509e-39
1.9165038 0.30628625 -4.7683716e-07 5.2551509e-39
1.9236902 0.30480096 -5.9604645e-07 5.2551509e-39
1.9338093 0.30484241 -4.7683716e-07 5.2551509e-39
1.9454447 0.30458614 -5.9604645e-07 5.2551509e-39
1.9527622 0.3052291 -5.9604645e-07 5.2551509e-39
1.9645439 0.30497104 -5.9604645e-07 5.2551509e-39
1.974916 0.3050153 -5.9604645e-07 5.2551509e-39
1.985363 0.30505815 -4.053116e-07 5.2551509e-39
1.9973763 0.30479851 -5.9604645e-07 5.2551509e-39
2.0049324 0.30545235 -5.9604645e-07 5.2551509e-39
2.0125234 0.30610925 -4.7683716e-07 5.2551509e-39
2.0239804 0.30490762 -5.9604645e-07 5.2551509e-39
2.0355091 0.30369684 -5.9604645e-07 5.2551509e-39
2.0432427 0.30435577 -3.5762787e-07 5.2551509e-39
2.0549159 0.30535039 -5.9604645e-07 5.2551509e-39
2.066982 0.30531165 -0.00049887871 5.2551509e-39
2.0745423 0.30479592 -5.9604645e-07 5.2551509e-39
2.0824597 0.30546525 -3.5762787e-07 5.2551509e-39
2.0944116 0.30423567 -5.9604645e-07 5.2551509e-39
2.1064391 0.30524448 -5.9604645e-07 5.2551509e-39
2.1145084 0.30592126 -5.9604645e-07 5.2551509e-39
2.1226163 0.30660132 -5.9604645e-07 5.2551509e-39
2.1340377 0.3043851 -4.7683716e-07 5.2551509e-39
2.1471751 0.30411097 -4.7683716e-07 5.2551509e-39
2.1539538 0.30365238 -0.0013024829 5.2551509e-39
2.1637464 0.30547881 -5.9604645e-07 5.2551509e-39
2.1720922 0.30616766 -4.7683716e-07 5.2551509e-39
2.1846926 0.30490488 -5.9604645e-07 5.2551509e-39
2.1973753 0.30132908 -5.9604645e-07 5.2551509e-39
2.2490716 0.30315009 -4.7683716e-07 5.2551509e-39
0.50467461 0.31507072 -4.7683716e-07 3.1346514e-39
0.51443785 0.3148452 -4.9851155e-07 3.1346514e-39
0.52499187 0.31511897 -4.7683716e-07 3.1346514e-39
0.53544605 0.31505483 -5.2792683e-07 3.1346514e-39
0.54564279 0.31457987 -5.6624413e-07 3.4112383e-39
0.55400836 0.31545979 -5.2268689e-07 4.978564e-39
1.5486388 0.31475976 -5.9604645e-07 5.3473465e-39
1.5576468 0.31456468 -5.0067899e-07 5.3473465e-39
1.5654418 0.31574962 -0.0014664918 5.2551509e-39
1.5741167 0.31551185 -5.7617825e-07 5.2551509e-39
1.5855874 0.31479412 -5.6624413e-07 5.2551509e-39
1.5942483 0.31568196 -5.9604645e-07 5.2551509e-39
1.6029681 0.31466299 -6.1591464e-07 5.2551509e-39
1.6146728 0.31585506 -4.5696893e-07 5.2551509e-39
1.6264735 0.31512851 -4.7683716e-07 5.2551509e-39
1.6353844 0.31409568 -4.7683716e-07 5.2551509e-39
1.6443568 0.31499755 -5.9604645e-07 5.2551509e-39
1.6557974 0.31536731 -5.2452089e-07 5.2551509e-39
1.6654986 0.31516814 -4.7683716e-07 5.2551509e-39
1.6752703 0.31496626 -4.2915343e-07 5.2551509e-39
1.6838683 0.31503567 -4.7683716e-07 5.2551509e-39
1.6925228 0.3151041 -5.0067899e-07 5.2551509e-39
1.7055955 0.31520954 -4.7683716e-07 5.2551509e-39
1.7150006 0.31414869 -4.7683716e-07 5.2551509e-39
1.7244722 0.31507552 -4.7683716e-07 5.2551509e-39
1.7339972 0.31400749 -5.9604645e-07 5.2551509e-39
1.7435898 0.31493977 -5.364418e-07 5.2551509e-39
1.7571179 0.31504422 -5.4836272e-07 5.2551509e-39
1.7662009 0.31511578 -5.9604645e-07 5.2551509e-39
1.7753452 0.31518632 -4.5299529e-07 5.2551509e-39
1.7858566 0.31497839 -5.9604645e-07 5.2551509e-39
1.7964474 0.31476754 -5.2452089e-07 5.2551509e-39
1.8057684 0.31483921 -4.7683716e-07 5.2551509e-39
1.8151531 0.31490985 -4.7683716e-07 5.2551509e-39
1.8259412 0.31469822 -3.5762787e-07 5.2551509e-39
1.8361309 0.31566137 -5.364418e-07 5.2551509e-39
1.8463806 0.31455538 -7.1525574e-07 5.2551509e-39
1.8532537 0.31520045 -4.7683716e-07 5.2551509e-39
1.8636242 0.31408751 -5.364418e-07 5.2551509e-39
1.8740562 0.31505969 -5.9604645e-07 5.2551509e-39
1.8852686 0.314843 -5.9604645e-07 5.2551509e-39
1.8951378 0.31491703 -5.9604645e-07 5.2551509e-39
1.9050766 0.31498989 -5.0067899e-07 5.2551509e-39
1.9165038 0.3147724 -4.7683716e-07 5.2551509e-39
1.9236902 0.31543258 -5.9604645e-07 5.2551509e-39
1.9352596 0.31521377 -4.7683716e-07 5.2551509e-39
1.9454447 0.31529018 -5.9604645e-07 5.2551509e-39
1.952013 0.31538361 -6.7890737e-06 5.2551509e-39
1.9638054 0.31481159 -5.9604645e-07 5.2551509e-39
1.974916 0.31581742 -5.9604645e-07 5.2551509e-39
1.9858685 0.31568053 -0.0003495212 5.2551509e-39
1.9973763 0.31349999 -5.9604645e-07 5.2551509e-39
2.0049324 0.314174 -5.9604645e-07 5.2551509e-39
2.0125234 0.31485108 -4.7683716e-07 5.2551509e-39
2.0239806 0.31587309 -5.9604645e-07 5.2551509e-39
2.0355091 0.31470063 -5.9604645e-07 5.2551509e-39
2.0432427 0.31538528 -3.5762787e-07 5.2551509e-39
2.0549159 0.31420511 -5.9604645e-07 5.2551509e-39
2.0666621 0.31523719 -4.7683716e-07 5.2551509e-39
2.0745423 0.31592962 -5.9604645e-07 5.2551509e-39
2.0824597 0.3166253 -3.5762787e-07 5.2551509e-39
2.0936122 0.31446877 -5.9604645e-07 5.2551509e-39
2.1064391 0.31423637 -5.9604645e-07 5.2551509e-39
2.1145084 0.31493464 -5.9604645e-07 5.2551509e-39
2.1226163 0.31563628 -5.9604645e-07 5.2551509e-39
2.135675 0.31540456 -4.7683716e-07 5.2551509e-39
2.1471751 0.31321132 -4.7683716e-07 5.2551509e-39
2.1554408 0.31391561 -5.9604645e-07 5.2551509e-39
2.1637464 0.31233716 -5.9604645e-07 5.2551509e-39
2.1720922 0.3130427 -4.7683716e-07 5.2551509e-39
2.1846926 0.31640798 -5.9604645e-07 5.2551509e-39
2.1973753 0.31979716 -5.9604645e-07 5.2551509e-39
2.2456605 0.31559467 -0.00031239775 5.2551509e-39
2.2578382 0.31324533 -5.9604645e-07 5.2551509e-39
2.2755024 0.31706393 -4.7683716e-07 5.2551509e-39
2.2844009 0.31543791 -5.9604645e-07 5.2551509e-39
0.50447851 0.3248381 -4.8384948e-07 3.1346514e-39
0.51474422 0.32505044 -5.0522033e-07 3.1346514e-39
0.52512598 0.32526681 -4.7683716e-07 3.1346514e-39
0.5352267 0.32492271 -5.2452089e-07 3.1346514e-39
0.54543751 0.32457274 -5.6098492e-07 3.3190427e-39
0.55382758 0.32561401 -5.1657361e-07 4.8863684e-39
1.5486388 0.32414308 -5.9604645e-07 5.3473465e-39
1.5570825 0.325048 -5.364418e-07 5.2551509e-39
1.5655712 0.32595775 -4.7683716e-07 5.2551509e-39
1.5741167 0.32497996 -5.9604645e-07 5.2551509e-39
1.5855875 0.32430044 -5.9604645e-07 5.2551509e-39
1.5942484 0.32521713 -7.1525574e-07 5.2551509e-39
1.6023852 0.32531238 -6.4373017e-07 5.2551509e-39
1.6146729 0.32545817 -5.364418e-07 5.2551509e-39
1.6264735 0.3247709 -5.364418e-07 5.2551509e-39
1.6353847 0.32570219 -5.9604645e-07 5.2551509e-39
1.6443568 0.32469946 -6.5565109e-07 5.2551509e-39
1.657007 0.32484284 -5.4836272e-07 5.2551509e-39
1.6654986 0.32494041 -4.7683716e-07 5.2551509e-39
1.6740456 0.32503724 -5.0067899e-07 5.2551509e-39
1.6838684 0.3248691 -5.9604645e-07 5.2551509e-39
1.693763 0.32469845 -4.5299529e-07 5.2551509e-39
1.7055955 0.32511529 -4.9670535e-07 5.2551509e-39
1.7150006 0.32408571 -4.7683716e-07 5.2551509e-39
1.7244722 0.32504404 -4.7683716e-07 5.2551509e-39
1.7339972 0.32400775 -5.9604645e-07 5.2551509e-39
1.7435899 0.32497194 -5.364418e-07 5.2551509e-39
1.7558241 0.32539481 -5.2452089e-07 5.2551509e-39
1.7662009 0.32522321 -5.9604645e-07 5.2551509e-39
1.7766558 0.32504901 -5.0067899e-07 5.2551509e-39
1.7858566 0.32515126 -5.9604645e-07 5.2551509e-39
1.7951199 0.32525268 -5.4836272e-07 5.2551509e-39
1.8057683 0.32507834 -4.7683716e-07 5.2551509e-39
1.8164978 0.32490137 -4.7683716e-07 5.2551509e-39
1.8259412 0.32500449 -3.5762787e-07 5.2551509e-39
1.8354496 0.3251068 -5.4836272e-07 5.2551509e-39
1.8463806 0.32492968 -7.1525574e-07 5.2551509e-39
1.8532536 0.32559764 -4.7683716e-07 5.2551509e-39
1.8636242 0.32451919 -5.364418e-07 5.2551509e-39
1.8740562 0.32552612 -5.9604645e-07 5.2551509e-39
1.8845658 0.32444021 -5.9604645e-07 5.2551509e-39
1.8951378 0.32545361 -5.9604645e-07 5.2551509e-39
1.9065011 0.32527274 -5.7220461e-07 5.2551509e-39
1.9165038 0.32538009 -4.7683716e-07 5.2551509e-39
1.9246327 0.32481614 -0.00090792862 5.2551509e-39
1.9345345 0.32496291 -4.7683716e-07 5.2551509e-39
1.9454447 0.32599419 -5.9604645e-07 5.2551509e-39
1.9527622 0.3245402 -5.9604645e-07 5.2551509e-39
1.9630671 0.32464519 -5.9604645e-07 5.2551509e-39
1.974916 0.32445908 -5.9604645e-07 5.2551509e-39
1.9861116 0.32550246 -4.1723251e-07 5.2551509e-39
1.9973763 0.32437685 -5.9604645e-07 5.2551509e-39
2.0049324 0.32507598 -5.9604645e-07 5.2551509e-39
2.0125234 0.3235929 -4.7683716e-07 5.2551509e-39
2.0239806 0.3246454 -5.9604645e-07 5.2551509e-39
2.0355091 0.32570443 -5.9604645e-07 5.2551509e-39
2.0432427 0.32641482 -3.5762787e-07 5.2551509e-39
2.0541353 0.32431579 -5.9604645e-07 5.2551509e-39
2.0666621 0.32412317 -4.7683716e-07 5.2551509e-39
2.0745423 0.32483658 -5.9604645e-07 5.2551509e-39
2.0824597 0.32555333 -3.5762787e-07 5.2551509e-39
2.0952108 0.32536212 -5.9604645e-07 5.2551509e-39
2.1064391 0.3254762 -5.9604645e-07 5.2551509e-39
2.1145084 0.32394803 -5.9604645e-07 5.2551509e-39
2.1226163 0.32467124 -5.9604645e-07 5.2551509e-39
2.1348562 0.32576305 -4.7683716e-07 5.2551509e-39
2.1471751 0.32458678 -4.7683716e-07 5.2551509e-39
2.1554408 0.32075739 -5.9604645e-07 5.2551509e-39
2.1720922 0.32450104 -4.7683716e-07 5.2551509e-39
2.1846926 0.32560825 -5.9604645e-07 5.2551509e-39
2.1973753 0.32672265 -5.9604645e-07 5.2551509e-39
2.2447102 0.32386181 -5.364418e-07 5.2551509e-39
2.2578382 0.32029158 -5.9604645e-07 5.2551509e-39
0.50460899 0.33486938 -4.7683716e-07 3.1346514e-39
0.51485151 0.33502975 -4.9954372e-07 3.1346514e-39
0.52492505 0.33514678 -4.7683716e-07 3.1346514e-39
0.53500766 0.33478689 -5.2225022e-07 3.1346514e-39
0.54557413 0.33483544 -5.6799718e-07 3.3190427e-39
0.55382758 0.33532965 -5.1657361e-07 4.8863684e-39
1.5486388 0.33540305 -5.9604645e-07 5.2551509e-39
1.556518 0.33552533 -5.2452089e-07 5.2551509e-39
1.5655711 0.33539742 -4.7683716e-07 5.2551509e-39
1.5741167 0.3344481 -5.9604645e-07 5.2551509e-39
1.5855875 0.33570802 -5.9604645e-07 5.2551509e-39
1.5942484 0.33475223 -7.1525574e-07 5.2551509e-39
1.6035509 0.3346189 -6.6757201e-07 5.2551509e-39
1.614673 0.33506131 -5.364418e-07 5.2551509e-39
1.6258812 0.33550528 -5.4836272e-07 5.2551509e-39
1.6353847 0.33537424 -5.9604645e-07 5.2551509e-39
1.6443568 0.33440137 -6.5565109e-07 5.2551509e-39
1.6564022 0.33569229 -5.364418e-07 5.2551509e-39
1.6654986 0.33471268 -4.7683716e-07 5.2551509e-39
1.6752703 0.33457589 -5.2452089e-07 5.2551509e-39
1.6838684 0.33470252 -7.1525574e-07 5.2551509e-39
1.6931429 0.33568409 -4.7683716e-07 5.2551509e-39
1.7055956 0.33502099 -5.364418e-07 5.2551509e-39
1.7160144 0.33340478 -0.0014847977 5.2551509e-39
1.7244722 0.33501264 -5.9604645e-07 5.2551509e-39
1.7339972 0.33400801 -5.9604645e-07 5.2551509e-39
