# .PCD v0.7 - Point Cloud Data file format
VERSION 0.7
FIELDS x y z rgb
SIZE 4 4 4 4
TYPE F F F F
COUNT 1 1 1 1
WIDTH 870
HEIGHT 1
VIEWPOINT 0 0 0 1 0 0 0
POINTS 870
DATA ascii
0.52362263 -0.33064532 0.63060594 1.3837052e-39
0.51729333 -0.32303819 0.63735509 2.8595989e-39
0.52233267 -0.3298384 0.63804656 2.5830022e-39
0.51657474 -0.31465033 0.63627028 2.951796e-39
0.51874673 -0.30508041 0.63482463 2.9517932e-39
0.52264845 -0.3020373 0.63447136 2.9517932e-39
0.5198217 -0.2974939 0.63064581 2.9517932e-39
0.52115238 -0.2946648 0.63537055 2.9517932e-39
0.52251005 -0.28497744 0.63493079 2.9517932e-39
0.52390379 -0.2747516 0.6349799 3.1361816e-39
0.52513671 -0.26509982 0.63486308 7.192027e-39
0.52654958 -0.25512359 0.63500565 1.1616651e-38
0.52792549 -0.2447257 0.63532126 1.1708845e-38
0.5286929 -0.23528701 0.63501751 1.1708845e-38
0.52953392 -0.22546041 0.63423449 1.1708845e-38
0.5300715 -0.22079444 0.63645518 1.1801041e-38
0.52999473 -0.21911691 0.63241684 1.1801041e-38
0.53074062 -0.2146941 0.63571495 1.1708845e-38
0.53225595 -0.20503816 0.63490236 1.1524457e-38
0.53363109 -0.19507347 0.63505679 7.6529996e-39
0.53596365 -0.18506177 0.63508803 2.9517932e-39
0.53845155 -0.17545544 0.63497752 3.0425455e-39
0.54030532 -0.17061539 0.63697541 2.951433e-39
0.5422833 -0.16486192 0.63509446 5.1464284e-39
0.55275452 -0.16744599 0.63758302 2.951433e-39
0.54440957 -0.15956908 0.63531196 6.2448278e-39
0.52924842 -0.080484562 0.6307224 1.5119719e-38
0.53286707 -0.081628457 0.63182837 1.5120079e-38
0.51947802 -0.071420878 0.63393497 9.0351717e-39
0.52496755 -0.076076873 0.63355625 1.2261656e-38
0.5097084 -0.061021533 0.63600636 9.0351717e-39
0.51423949 -0.065879785 0.63495153 9.0351717e-39
0.505126 -0.05525038 0.63505024 1.0510302e-38
0.49857819 -0.04350163 0.63464856 1.1430452e-38
0.50108945 -0.048221935 0.63516593 1.1616285e-38
0.4974044 -0.036873609 0.63547134 1.1242463e-38
0.50207615 -0.031721789 0.63505149 1.1242465e-38
0.50696272 -0.027283838 0.63498461 1.1149908e-38
0.51293802 -0.022054549 0.63514292 1.0226872e-38
0.51745939 -0.018140459 0.63497806 1.0409101e-38
0.52310848 -0.013230538 0.63414228 9.2105456e-39
0.52853769 -0.0085564647 0.63452643 6.3456175e-39
0.53407437 -0.0038412176 0.63483346 6.5285711e-39
0.53865224 0.00011767354 0.63518679 6.8033601e-39
0.54481232 0.0057121413 0.63475442 6.6200478e-39
0.55473185 0.014611336 0.63468373 6.7115246e-39
0.56034398 0.01952534 0.63520569 6.9859549e-39
0.56558084 0.024198178 0.63511175 7.1703462e-39
0.57127535 0.029495468 0.63412511 9.8487236e-39
0.57614601 0.033705223 0.63447911 1.0217507e-38
0.58238131 0.038554858 0.63593042 9.8440432e-39
0.58688605 0.042118836 0.63583082 9.657131e-39
0.59190327 0.045677602 0.63568932 9.5631361e-39
0.45527598 0.1971916 0.6351437 5.3459046e-39
0.46240661 0.19446903 0.63506877 5.6188747e-39
0.44715625 0.20573437 0.63496435 4.8842048e-39
0.450773 0.20083287 0.63505596 5.0696792e-39
0.43865788 0.21832699 0.63430458 4.6994506e-39
0.44229189 0.21327274 0.63491404 4.8849264e-39
0.42265272 0.22609976 0.63119054 6.1821757e-39
0.43396205 0.22492276 0.63542426 4.9778451e-39
0.42852592 0.2355433 0.63555223 5.1629595e-39
0.43045121 0.23060387 0.63519585 4.9774822e-39
0.42825824 0.24245808 0.63560456 5.9001644e-39
0.43144637 0.24767779 0.63774598 5.6250194e-39
0.51818472 -0.32220998 0.64410335 3.1361942e-39
0.52051693 -0.32701898 0.64252812 2.490808e-39
0.51771957 -0.31409752 0.64533204 2.951796e-39
0.5190832 -0.30696136 0.64375967 2.9517932e-39
0.52074575 -0.30287993 0.64599794 2.9517932e-39
0.5225758 -0.29497522 0.64497322 2.9517932e-39
0.52418876 -0.28497559 0.64499325 2.9517932e-39
0.52518731 -0.27496967 0.64495891 4.7034905e-39
0.52643973 -0.26499563 0.64488101 1.1708845e-38
0.52782506 -0.25517848 0.64511305 1.1708845e-38
0.52904654 -0.24509703 0.64516914 1.1524457e-38
0.52963793 -0.23572199 0.64267534 1.1708845e-38
0.53045779 -0.23426028 0.64696926 1.1616289e-38
0.5299058 -0.22715473 0.64081937 1.1801041e-38
0.53076828 -0.22482869 0.64551008 1.1708845e-38
0.53145152 -0.21516649 0.6453793 1.1708845e-38
0.53264862 -0.20489852 0.64478582 1.1708845e-38
0.53457963 -0.19504166 0.64475787 1.1247872e-38
0.53670001 -0.18501423 0.64479595 3.1361816e-39
0.53887999 -0.17694798 0.6447885 2.9517932e-39
0.54077899 -0.17220363 0.64575702 2.9517932e-39
0.54376686 -0.1648657 0.64464647 2.9514316e-39
0.55199504 -0.1613235 0.64255142 3.5053467e-39
0.54578847 -0.15952483 0.64296007 4.4146437e-39
0.52964175 -0.080749527 0.64800721 9.0005989e-39
0.53329575 -0.083783843 0.64642906 9.1921928e-39
0.51846123 -0.070534036 0.6450665 8.8270116e-39
0.52399349 -0.075476438 0.64366019 9.2887101e-39
0.50973815 -0.060487743 0.64423603 8.8262914e-39
0.514054 -0.065492213 0.64470333 8.8255711e-39
0.50558037 -0.055226456 0.64427185 9.006361e-39
0.49876785 -0.042715169 0.6453191 9.0985567e-39
0.5016219 -0.047185879 0.64252543 9.2829479e-39
0.49818078 -0.037293606 0.64538854 9.0956756e-39
0.50255394 -0.032461774 0.64582425 8.9998786e-39
0.50734496 -0.027466614 0.64537841 7.8060172e-39
0.51231366 -0.022816686 0.64589882 6.3366492e-39
0.51742554 -0.018292746 0.64521974 5.9693073e-39
0.52351296 -0.012958327 0.6445595 6.4288435e-39
0.53789604 -0.014615896 0.64186823 1.1152068e-38
0.52874762 -0.0083102165 0.6452046 8.5407011e-39
0.53380722 -0.0038581102 0.64519823 8.7243721e-39
0.53849626 0.00028459416 0.6449886 8.8162076e-39
0.54507864 0.006166867 0.64500421 8.6328954e-39
0.55482787 0.015033268 0.64516091 8.7243721e-39
0.56004572 0.019539392 0.64243889 8.8162076e-39
0.56580544 0.024746509 0.64507455 8.7243721e-39
0.57104844 0.029431751 0.64529794 8.7243721e-39
0.57574677 0.033387907 0.64438921 8.8162076e-39
0.58150661 0.038640916 0.6464262 8.8162076e-39
0.58685786 0.042894218 0.64624339 8.8165678e-39
0.59122598 0.046323236 0.64602351 8.9094837e-39
0.45580873 0.19763927 0.64303416 6.5509582e-39
0.46147853 0.19477086 0.64476544 7.2877988e-39
0.44737005 0.20593581 0.64462769 6.1821757e-39
0.45105547 0.20104374 0.64631206 6.2743727e-39
0.43889204 0.21826266 0.64485747 6.1821757e-39
0.44247058 0.21321057 0.64539838 6.1821757e-39
0.43414542 0.22487476 0.64509159 6.1821757e-39
0.42851529 0.23539035 0.64493638 6.0899787e-39
0.4302569 0.23069704 0.64697617 6.1821757e-39
0.42890072 0.2430726 0.6438458 6.0896171e-39
0.43124142 0.24723601 0.64500529 6.5473359e-39
0.43465513 0.25124639 0.64560974 6.6388056e-39
0.51825345 -0.32370952 0.65300715 3.2283927e-39
0.52091712 -0.32448715 0.65668923 3.136553e-39
0.51881838 -0.31611413 0.65135092 3.5975437e-39
0.52127194 -0.31473979 0.65513057 3.3205883e-39
0.51945072 -0.30983973 0.65043616 2.9517932e-39
0.52172917 -0.30519798 0.65428168 3.136553e-39
0.52377069 -0.29506642 0.65501255 2.9517932e-39
0.52530879 -0.2847375 0.65516222 2.9517932e-39
0.52631509 -0.27526131 0.65494287 7.8373894e-39
0.52753067 -0.26514742 0.65520847 9.9556819e-39
0.52882928 -0.25484169 0.65473944 9.4954268e-39
0.53002608 -0.25041348 0.65955234 7.9262962e-39
0.52962297 -0.24760658 0.65328085 9.4025095e-39
0.53037238 -0.24392462 0.65609717 8.2961619e-39
0.53128916 -0.23490293 0.6549316 8.8489742e-39
0.53229725 -0.22490691 0.65503269 8.8489742e-39
0.53304785 -0.21498369 0.65556836 9.5865392e-39
0.53359663 -0.20518646 0.65481859 1.1524094e-38
0.53494209 -0.19477004 0.65525138 8.7589758e-39
0.53707755 -0.18485652 0.6549601 2.9517932e-39
0.53928685 -0.17789519 0.65511292 2.9517932e-39
0.54095381 -0.17300573 0.65504128 2.9517932e-39
0.54416305 -0.16462035 0.65483159 2.9517932e-39
0.54901952 -0.1589978 0.65602559 2.9517932e-39
0.55233735 -0.15704368 0.65819854 2.9517932e-39
0.53346807 -0.082386635 0.65161198 9.1842699e-39
0.50619739 -0.072490603 0.65782797 1.133646e-38
0.51911932 -0.071438417 0.65495229 8.8162076e-39
0.52348512 -0.075606711 0.65418732 8.8162076e-39
0.50994205 -0.061192695 0.65750986 8.7243721e-39
0.51402223 -0.065801881 0.65530366 8.7243721e-39
0.50490272 -0.055328768 0.65522659 8.7243721e-39
0.49834973 -0.044396304 0.65525359 9.6621743e-39
0.49922538 -0.039206788 0.65041232 9.1842713e-39
0.50304896 -0.034664731 0.6542936 8.0818838e-39
0.50807667 -0.027419789 0.65562689 6.3366492e-39
0.51261497 -0.022507617 0.65495688 6.1529782e-39
0.51807851 -0.018036779 0.65403467 6.9794977e-39
0.52391672 -0.012930821 0.65449262 7.7141817e-39
0.52872109 -0.0083285747 0.65559489 8.8162076e-39
0.53381896 -0.0034964602 0.65460229 8.7243721e-39
0.53892887 0.0012459259 0.65516323 8.7243721e-39
0.54475909 0.0064834063 0.65532267 8.8162076e-39
0.55515653 0.015708612 0.6548779 8.7243721e-39
0.56459975 0.02440919 0.65493172 8.8180083e-39
0.57057428 0.029373145 0.65528953 8.8162076e-39
0.5759362 0.034175925 0.65489841 8.7243721e-39
0.58141911 0.039034069 0.65454215 8.7243721e-39
0.58639938 0.043392178 0.65493327 8.7243721e-39
0.45497891 0.19694306 0.65549445 6.8268192e-39
0.46496278 0.19452277 0.65483916 7.3763721e-39
0.4702549 0.19517474 0.65978229 6.4536941e-39
0.44747636 0.20639831 0.65479064 6.2740112e-39
0.45091003 0.20115864 0.65479553 6.9190163e-39
0.43910515 0.21841271 0.65488148 6.1821757e-39
0.44256669 0.21362112 0.65501553 6.1821757e-39
0.43444294 0.22479503 0.65466589 6.4584011e-39
0.42901745 0.23651502 0.65337765 6.2740112e-39
0.43079269 0.2324647 0.65570027 6.7346264e-39
0.42843941 0.24290583 0.65529138 6.3658439e-39
0.43179142 0.24823777 0.65620852 5.7168493e-39
0.43566275 0.25159764 0.65368658 6.454413e-39
0.52262926 -0.3304705 0.66463125 3.1365516e-39
0.51943851 -0.32409018 0.66602802 2.3982453e-39
0.52244741 -0.32960624 0.66752613 3.1365516e-39
0.51981217 -0.31617644 0.66486168 2.9517932e-39
0.52013111 -0.31335706 0.66749239 2.9517932e-39
0.5198971 -0.30897489 0.66319758 2.9517932e-39
0.52134591 -0.30426836 0.66552126 2.9517932e-39
0.53157192 -0.3046788 0.66629571 2.3986068e-39
0.51491642 -0.29953247 0.66514295 2.9517932e-39
0.52411908 -0.29517695 0.66526198 2.9517932e-39
0.52650249 -0.28533086 0.66500294 4.4265477e-39
0.52766353 -0.27475417 0.66467428 1.1063481e-38
0.52882248 -0.26522452 0.6651513 7.0943691e-39
0.52960145 -0.25716585 0.66332412 6.8174221e-39
0.53045869 -0.25319943 0.66641796 5.892219e-39
0.5314157 -0.24469604 0.66492164 5.8918589e-39
0.53257388 -0.23510379 0.66509914 5.892219e-39
0.53369367 -0.22500519 0.66496432 6.2617246e-39
0.53472793 -0.21499774 0.66538185 6.817062e-39
0.53525913 -0.20503947 0.66528112 8.4794686e-39
0.53603709 -0.19525048 0.66505474 1.0971288e-38
0.5381121 -0.18490468 0.66425276 3.0439874e-39
0.53957623 -0.17873637 0.6653232 2.9517932e-39
0.54118776 -0.17366792 0.66521591 2.9517932e-39
0.54463124 -0.16494788 0.66537261 2.9517932e-39
0.54905164 -0.15857746 0.6662215 2.9517932e-39
0.55395985 -0.1570698 0.66362906 3.0439958e-39
0.56126976 -0.15799206 0.66481388 3.1365544e-39
0.52893829 -0.081289783 0.66504049 8.8162076e-39
0.53139263 -0.083688974 0.66559458 8.8162076e-39
0.51900136 -0.071018189 0.66578686 8.8162076e-39
0.52375329 -0.075986654 0.66444725 8.8162076e-39
0.5095821 -0.060689744 0.66470331 8.8162076e-39
0.51412827 -0.065730281 0.66518408 8.7243721e-39
0.50430912 -0.054725658 0.66482663 8.9998786e-39
0.49812484 -0.045062885 0.6642434 9.8281988e-39
0.50049275 -0.046581328 0.66778326 1.0101905e-38
0.49852666 -0.037238445 0.66647261 9.0917141e-39
0.50217468 -0.031496596 0.66699326 6.0611427e-39
0.50661898 -0.027202547 0.6661104 6.7958267e-39
0.51258701 -0.022174783 0.66435182 6.3366492e-39
0.51770449 -0.01767843 0.66498297 7.5305107e-39
0.52330619 -0.012607155 0.66537571 8.7243721e-39
0.52869904 -0.0077344454 0.66480792 8.8162076e-39
0.53370947 -0.0032346724 0.66502976 8.7243721e-39
0.5379622 0.0014694477 0.66469979 8.6325366e-39
0.54456592 0.0065572117 0.66443932 8.7243721e-39
0.54845351 0.01003228 0.66604018 8.8162076e-39
0.55487663 0.015586029 0.66536731 8.7243721e-39
0.56521815 0.024704829 0.66446912 8.7243721e-39
0.57024485 0.029317308 0.66494042 8.8162076e-39
0.57555413 0.034158397 0.6654104 8.8162076e-39
0.58147287 0.039212801 0.66631377 8.9998786e-39
0.58655494 0.042964216 0.66515452 9.0917141e-39
0.59288096 0.045552582 0.66771907 9.5508916e-39
0.456009 0.19671726 0.6649785 6.9190149e-39
0.46087798 0.194042 0.66793329 8.944781e-39
0.44745904 0.20621124 0.66467738 7.6558582e-39
0.45101336 0.2012281 0.66513753 6.826822e-39
0.43899041 0.21852562 0.66483712 3.0486327e-39
0.44260979 0.21343757 0.66519362 3.1419059e-39
0.43423277 0.22488874 0.66519707 5.6293691e-39
0.42884284 0.23631133 0.66569769 7.0112119e-39
0.43044671 0.2309452 0.66489202 8.0242792e-39
0.42911509 0.24240606 0.66518104 6.0899801e-39
0.43174446 0.2471052 0.66389889 5.2569572e-39
0.4367952 0.25267428 0.66487205 5.6242922e-39
0.51903802 -0.32422218 0.67211676 2.6751993e-39
0.52061528 -0.32388481 0.67618465 2.6748391e-39
0.52033371 -0.31505093 0.67450804 2.9517932e-39
0.52178371 -0.30498344 0.67478192 2.9517932e-39
0.52478319 -0.294871 0.67491364 2.9517932e-39
0.52732652 -0.28515249 0.67490077 1.0141896e-38
0.52863002 -0.27524322 0.6751188 1.1708845e-38
0.52952802 -0.26616025 0.67340034 7.8308538e-39
0.53037059 -0.26280919 0.67688411 7.3698742e-39
0.53115076 -0.25512019 0.67498463 5.9833342e-39
0.53268331 -0.24532078 0.67483747 6.0758914e-39
0.53406423 -0.2349721 0.67491722 5.8914988e-39
0.53542608 -0.22484456 0.67497075 5.9833342e-39
0.53629917 -0.21520597 0.67480892 5.9833342e-39
0.53686559 -0.20512179 0.67489994 7.6464625e-39
0.53753263 -0.19482297 0.67540932 1.1708845e-38
0.53838474 -0.1852622 0.67451805 3.8737383e-39
0.54030788 -0.18173312 0.67866462 2.9517932e-39
0.53964859 -0.17911777 0.6713444 2.9517932e-39
0.54236871 -0.17501175 0.6754384 2.9517932e-39
0.53554136 -0.16514279 0.67611367 2.9517932e-39
0.54664147 -0.16511767 0.67512828 2.9517932e-39
0.54946887 -0.1587805 0.67510986 2.9517932e-39
0.55045837 -0.15676072 0.67587042 2.9517932e-39
0.52892971 -0.081226103 0.67378646 9.3769428e-39
0.53226054 -0.083828464 0.67485875 9.6589317e-39
0.51908553 -0.07122343 0.67354822 8.8223299e-39
0.52408606 -0.076576889 0.67517984 1.0214268e-38
0.50842857 -0.062149767 0.67222995 1.0487252e-38
0.51381958 -0.06560041 0.67516786 8.9195674e-39
0.50426811 -0.054858554 0.67512554 9.4756223e-39
0.49694321 -0.044495802 0.67685831 9.7648124e-39
0.49857923 -0.038010553 0.67409277 5.6044862e-39
0.50264305 -0.033300165 0.67414629 6.7039912e-39
0.5077455 -0.02701286 0.67393672 6.1529782e-39
0.51274592 -0.021816894 0.67465132 7.2550042e-39
0.51764792 -0.017342055 0.67556244 8.7243721e-39
0.52277154 -0.01273627 0.67466319 8.7243721e-39
0.52767259 -0.0083670607 0.67464972 8.7243721e-39
0.53359205 -0.0030215702 0.67564619 8.8162076e-39
0.5388422 0.001671439 0.67447096 8.7243721e-39
0.54388613 0.0062143137 0.67474931 8.7243721e-39
0.54818207 0.010816772 0.67652404 9.4662588e-39
0.55488265 0.015865479 0.67470342 8.7243721e-39
0.56470835 0.024414262 0.67466313 8.8162076e-39
0.57017326 0.029258406 0.67541766 8.8162076e-39
0.57520109 0.033983458 0.67523718 8.7243721e-39
0.58061808 0.039068956 0.67644167 8.8162076e-39
0.58326799 0.041522708 0.67828774 8.8162076e-39
0.45586604 0.19691202 0.67518759 7.4714642e-39
0.4641059 0.19410163 0.67351913 7.5614864e-39
0.44751415 0.20638216 0.67519569 6.2740112e-39
0.45115957 0.20150292 0.67539698 6.3662054e-39
0.43896368 0.21869348 0.67513627 2.5826183e-39
0.44259658 0.21377653 0.67478579 2.9506763e-39
0.43435416 0.22513631 0.67500919 4.3364835e-39
0.42970356 0.23564057 0.67293537 6.1821757e-39
0.43052223 0.23339953 0.67563403 6.1821757e-39
0.42941985 0.2430732 0.67514032 6.1818142e-39
0.43201959 0.24808858 0.67632443 5.9019665e-39
0.43624133 0.25203165 0.67514354 6.0856318e-39
0.52452898 -0.33061978 0.68540406 1.3837052e-39
0.52285802 -0.32470036 0.68423843 2.3986068e-39
0.52095068 -0.31501323 0.68425524 2.9517932e-39
0.52204448 -0.3051815 0.68516099 2.8595975e-39
0.52508652 -0.29525685 0.68495452 2.9517932e-39
0.52795923 -0.28504947 0.68502784 1.0786899e-38
0.52941614 -0.27567068 0.68484026 1.1708845e-38
0.5300979 -0.27102339 0.68615812 1.1801041e-38
0.52998614 -0.26920944 0.6805467 1.1801041e-38
0.53083825 -0.26506799 0.68548799 1.1708845e-38
0.53210479 -0.25484321 0.68479228 1.0231909e-38
0.53359103 -0.244785 0.6850785 9.2163134e-39
0.53505033 -0.23525178 0.68494558 8.9390062e-39
0.53658026 -0.22532173 0.68496609 9.1241177e-39
0.54028016 -0.22160327 0.68255591 5.9844146e-39
0.53785461 -0.21463318 0.68491811 9.9549616e-39
0.53832936 -0.2050018 0.68463272 1.1524452e-38
0.53887117 -0.19537221 0.68499726 1.1155677e-38
0.53886348 -0.18690985 0.68425596 4.3347122e-39
0.54045475 -0.18273714 0.68663269 2.9517932e-39
0.54223031 -0.17518033 0.68582302 2.9517932e-39
0.5453245 -0.16498241 0.68680525 2.9517932e-39
0.54870629 -0.15858346 0.6849466 2.9517932e-39
0.55393833 -0.15657334 0.68620479 2.9521575e-39
0.528772 -0.081010744 0.68628633 1.2630437e-38
0.53314251 -0.083746381 0.68653458 1.3829703e-38
0.51827735 -0.07127817 0.68527406 9.0351717e-39
0.52355486 -0.076222986 0.68476605 1.0879083e-38
0.50899112 -0.060811892 0.68512785 9.0351717e-39
0.51320738 -0.065660298 0.68564743 9.0351717e-39
0.5044331 -0.05518537 0.68515038 1.0786889e-38
0.49774122 -0.044276778 0.68377185 1.1431535e-38
0.50077528 -0.048621286 0.68564534 1.1616285e-38
0.49804688 -0.036963105 0.6865508 8.1074491e-39
0.5024823 -0.032022137 0.68608373 8.741297e-39
0.50754559 -0.026554825 0.68524253 7.9986915e-39
0.51239455 -0.021760995 0.68446958 9.0978364e-39
0.51700419 -0.017579738 0.68589371 9.4713007e-39
0.52255762 -0.012617902 0.68425584 9.1907523e-39
0.53031981 -0.018294442 0.68223929 1.2539686e-38
0.5274958 -0.0081073204 0.68520349 9.4713007e-39
0.53339136 -0.0028332479 0.68492609 6.5261174e-39
0.53851157 0.0017256748 0.68447101 6.2498948e-39
0.54350787 0.005914269 0.68490613 5.9751128e-39
0.54881072 0.01099147 0.68495363 5.7003294e-39
0.55502683 0.016078938 0.68462265 6.9914186e-39
0.56512225 0.025020441 0.68543416 1.0216428e-38
0.57000875 0.029206268 0.68458259 9.7514889e-39
0.57561761 0.034337163 0.68478256 1.0123151e-38
0.58053488 0.038950268 0.68546659 1.0403699e-38
0.5855853 0.043127045 0.68532979 1.0496975e-38
0.45630881 0.19749291 0.68468767 6.8271822e-39
0.46265033 0.1942002 0.68552667 8.0235533e-39
0.44738618 0.20668629 0.68498307 7.1948829e-39
0.45121589 0.20148067 0.68510962 7.4714684e-39
0.43901139 0.21853426 0.68519419 2.765569e-39
0.44250518 0.21369353 0.68492293 3.22618e-39
0.43480265 0.22483185 0.68477744 5.0725995e-39
0.42868575 0.2364721 0.68544197 8.3005032e-39
0.43152204 0.23198786 0.6848644 8.0242792e-39
0.428817 0.24159938 0.68372536 6.2725608e-39
0.43207404 0.24635433 0.68507206 5.9012406e-39
0.43513289 0.25082469 0.68621379 6.1778289e-39
0.44121894 0.2547251 0.68632466 6.454413e-39
0.5220136 -0.32398039 0.69549006 2.8595961e-39
0.52132148 -0.31441614 0.69532049 2.9517932e-39
0.52321154 -0.30483192 0.69472605 2.9517932e-39
0.52596164 -0.29487389 0.69484371 2.9517932e-39
0.52858132 -0.28495556 0.69491112 9.4965338e-39
0.52969474 -0.27764177 0.69272751 1.1708845e-38
0.530671 -0.27381027 0.69575781 1.1708845e-38
0.53186399 -0.26476249 0.69506592 1.1708845e-38
0.53317404 -0.25520399 0.69494933 1.1708845e-38
0.53460091 -0.245088 0.69501936 1.1708845e-38
0.53603762 -0.23469749 0.6950115 1.1708845e-38
0.53735846 -0.22485976 0.69503766 1.1708845e-38
0.53863829 -0.21538216 0.69519019 1.1708845e-38
0.53951192 -0.20589983 0.6934216 1.1708845e-38
0.54033703 -0.20306927 0.69746667 8.3905562e-39
0.53978479 -0.19621411 0.69104975 1.0141896e-38
0.54066718 -0.19474396 0.69580597 5.7172725e-39
0.54136926 -0.18491621 0.69503242 2.9517932e-39
0.5438 -0.17479981 0.69431126 3.0439874e-39
0.54734331 -0.16487677 0.6937865 2.9517932e-39
0.54952198 -0.15942131 0.69456035 2.9517932e-39
0.55161303 -0.15783541 0.69606286 2.9517932e-39
0.56338793 -0.15794367 0.69036651 3.0443545e-39
0.53588349 -0.082478233 0.69399679 1.5765451e-38
0.54133087 -0.082355998 0.69845092 1.9637305e-38
0.51862025 -0.071310386 0.69427711 9.0319305e-39
0.52394861 -0.075895444 0.69521511 1.1893235e-38
0.50911129 -0.06022824 0.69389147 9.0351717e-39
0.51417571 -0.065393262 0.69608504 9.6805411e-39
0.5577814 -0.066485479 0.69990325 1.9637664e-38
0.5046823 -0.054832838 0.69527638 1.0694693e-38
0.51047689 -0.059943631 0.69956785 1.0325911e-38
0.5222311 -0.059069242 0.69001508 8.8208894e-39
0.49785978 -0.04421743 0.69583189 1.1340781e-38
0.5001092 -0.041350111 0.69888991 1.1156753e-38
0.4988265 -0.038560417 0.69367135 8.8496903e-39
0.50262254 -0.034666114 0.6956619 1.1524089e-38
0.50750273 -0.027529465 0.69522995 1.2353853e-38
0.51226777 -0.022716198 0.69590783 1.2538244e-38
0.51749098 -0.017732415 0.69499725 1.1985068e-38
0.52323246 -0.012748696 0.69585508 1.2169459e-38
0.52790356 -0.008345033 0.69528645 1.2354214e-38
0.53374779 -0.0033907413 0.69584525 4.7953302e-39
0.53869271 0.0016889197 0.69436902 2.9517932e-39
0.54461801 0.0059645553 0.6961844 2.951433e-39
0.54881781 0.010730745 0.69343555 2.9517932e-39
0.55532622 0.0153056 0.69575727 4.7953302e-39
0.56098682 0.019248979 0.69838011 1.0602497e-38
0.56555158 0.024085006 0.69537151 1.0694692e-38
0.57114196 0.028351853 0.69700295 1.0233714e-38
0.57600969 0.033407815 0.69448769 1.0417745e-38
0.58238167 0.037967201 0.69589669 9.8649324e-39
0.58702445 0.042057775 0.69394332 1.050994e-38
0.59137553 0.044507589 0.69587481 9.5883455e-39
0.45649129 0.19780317 0.69533908 6.1818128e-39
0.46343628 0.19438311 0.69500554 7.7469623e-39
0.47008526 0.19672063 0.69941831 8.2968836e-39
0.44769213 0.20662406 0.69461185 6.0899801e-39
0.45133811 0.20177896 0.69547611 6.0899801e-39
0.438997 0.21904361 0.6944297 4.9825647e-39
0.44264138 0.21390973 0.69543022 5.4438974e-39
0.43489155 0.22509702 0.69527066 5.8130358e-39
0.42921063 0.23660921 0.69458252 6.0896171e-39
0.43070224 0.23189031 0.69629079 6.0896185e-39
0.42948636 0.24116877 0.69432312 6.5495079e-39
0.43212181 0.24574935 0.69580591 5.8101338e-39
0.43732494 0.25167149 0.69655895 5.6246551e-39
0.44214463 0.25471994 0.69784987 5.6235719e-39
0.52662188 -0.3302241 0.70771509 1.3837052e-39
0.52301955 -0.32458794 0.70550627 2.3982467e-39
0.52294403 -0.31513083 0.70541608 2.8599577e-39
0.52393603 -0.30506474 0.70493007 2.8599577e-39
0.52648622 -0.29506758 0.70498061 2.8599577e-39
0.52864468 -0.28608155 0.7047382 7.6544373e-39
0.53030825 -0.28123584 0.70658088 1.0697578e-38
0.53153986 -0.27518117 0.70500636 1.1065279e-38
0.53320098 -0.2651079 0.70491076 1.1157473e-38
0.53463107 -0.25510189 0.70479614 1.143298e-38
0.53601384 -0.24494371 0.70517498 1.1341144e-38
0.53708494 -0.23521864 0.70479321 1.1708845e-38
0.53828585 -0.22510558 0.70501256 1.1708846e-38
0.53935581 -0.21572088 0.70434594 7.3764169e-39
0.54025847 -0.21189833 0.70818734 2.9517932e-39
0.5398981 -0.20937328 0.70113438 6.4548291e-39
0.54084933 -0.20479128 0.70504326 3.1361816e-39
0.54202121 -0.19496927 0.70500171 2.9517932e-39
0.54358006 -0.18480743 0.70514554 2.8599577e-39
0.54558426 -0.17490964 0.70503181 2.9517932e-39
0.54768831 -0.16514881 0.70485634 2.9517932e-39
0.5503996 -0.16094267 0.70730901 2.9517932e-39
0.55489641 -0.1574935 0.70555609 2.9517932e-39
0.5603286 -0.1548491 0.70906591 2.9517932e-39
0.53492212 -0.08098805 0.70180249 1.9176691e-38
0.52620608 -0.074344806 0.70269841 1.5673257e-38
0.53444916 -0.074911639 0.7056846 1.6687045e-38
0.54297829 -0.072911449 0.70603818 1.8530599e-38
0.55068403 -0.072066009 0.70139951 1.8807544e-38
0.51752502 -0.06358543 0.7022379 1.1801041e-38
0.52452976 -0.065345049 0.70528346 1.4566548e-38
0.53514653 -0.064901717 0.70662564 1.8992296e-38
0.54414088 -0.064387947 0.70693535 1.9268884e-38
0.55423808 -0.06427069 0.70377964 1.6870353e-38
0.56153393 -0.061479963 0.70266008 1.6410105e-38
0.50675797 -0.053094018 0.70321757 1.2722634e-38
0.51421201 -0.055386074 0.70560789 1.3460562e-38
0.52503139 -0.054827929 0.70640439 1.5212279e-38
0.53533232 -0.055056948 0.70608187 1.770156e-38
0.5452829 -0.055276781 0.70646173 1.9084132e-38
0.55477238 -0.05423598 0.70689195 1.9453275e-38
0.56403887 -0.054183196 0.70573783 1.5581464e-38
0.57245487 -0.052352242 0.7028445 4.889405e-39
0.4993493 -0.046387982 0.70121199 1.2539686e-38
0.50455177 -0.044986058 0.70502347 1.336728e-38
0.51483899 -0.044639722 0.70657104 1.6595213e-38
0.52482092 -0.045251306 0.70576096 1.5027888e-38
0.53548068 -0.044784587 0.70581865 1.5212279e-38
0.54527187 -0.045083039 0.70580322 1.7148024e-38
0.5548014 -0.044954095 0.70634818 1.9361081e-38
0.56454295 -0.045055486 0.70667797 1.6964746e-38
0.57396644 -0.043905657 0.70594281 5.0737991e-39
0.58231485 -0.042583749 0.70329666 4.8894064e-39
0.50615001 -0.036016755 0.70383114 1.281483e-38
0.5152629 -0.034617458 0.70531601 1.8807901e-38
0.52488571 -0.034846045 0.70507014 1.5857648e-38
0.53485978 -0.035101049 0.70536065 1.5027888e-38
0.54535741 -0.035133593 0.70561737 1.4659107e-38
0.55495119 -0.035024956 0.70614648 1.4751688e-38
0.56441426 -0.035053842 0.70636326 6.3641595e-39
0.57468897 -0.034904543 0.70629978 4.8894064e-39
0.58401006 -0.034647673 0.70591402 4.8894064e-39
0.59196854 -0.031793818 0.70460248 8.2991649e-39
0.5085786 -0.028862137 0.70110404 1.3368002e-38
0.5151369 -0.02578157 0.70277703 1.511972e-38
0.52461714 -0.025014853 0.70418817 1.8530956e-38
0.5351069 -0.024861243 0.70553339 1.5765453e-38
0.54502314 -0.025013959 0.70611936 1.4014111e-38
0.55442029 -0.024948915 0.70635587 6.6403765e-39
0.56454182 -0.025013627 0.70635152 4.8894064e-39
0.57478541 -0.025244135 0.70634222 4.8894064e-39
0.58486652 -0.025025958 0.70642054 4.889405e-39
0.5939585 -0.023869131 0.70603287 8.1151268e-39
0.60201991 -0.022886358 0.7035774 1.871499e-38
0.51883304 -0.019235974 0.70071179 1.3368362e-38
0.52587032 -0.016251974 0.70227569 1.4935331e-38
0.53491861 -0.014909926 0.70447874 1.6595229e-38
0.54486376 -0.014865853 0.70608348 5.9953686e-39
0.55448556 -0.015284768 0.7065047 4.8890463e-39
0.56446964 -0.014822536 0.70644021 4.8894064e-39
0.57447976 -0.014996509 0.70640701 4.8894064e-39
0.58482146 -0.014660908 0.70647353 4.889405e-39
0.59483272 -0.0152372 0.70644641 1.0327451e-38
0.6048072 -0.014506459 0.70495927 1.97295e-38
0.61423141 -0.013019593 0.70303428 2.0098646e-38
0.62041074 -0.010105573 0.70236689 2.046743e-38
0.53620303 -0.0063867765 0.70208877 5.072671e-39
0.54476565 -0.0047928202 0.70463765 4.2436586e-39
0.55443215 -0.0051843375 0.7065711 4.8890449e-39
0.56442827 -0.004635537 0.70649123 4.8894078e-39
0.57472402 -0.0047452804 0.70622951 4.8890449e-39
0.58501583 -0.0051730927 0.70597881 8.5760951e-39
0.59558302 -0.0053478885 0.70612007 1.8715351e-38
0.60572106 -0.0055923895 0.70547324 1.9821325e-38
0.61497498 -0.0044739009 0.70559222 1.9360714e-38
0.62272429 -0.0039666817 0.70514578 1.9361081e-38
0.54664648 0.0031135455 0.70232028 3.6901051e-39
0.5546571 0.0051613566 0.70475644 4.0588988e-39
0.56451607 0.0047629816 0.70638376 4.9812433e-39
0.57497919 0.0046037016 0.70595068 7.7463485e-39
0.58556849 0.004626662 0.70574975 1.5027892e-38
0.59493762 0.0051113879 0.70564115 1.5304475e-38
0.60423303 0.0049851788 0.70595044 1.7885949e-38
0.61432737 0.0056008077 0.70703989 1.8991934e-38
0.6215682 0.0040527466 0.70703369 1.8991571e-38
0.55706692 0.011635295 0.70179433 4.4272988e-39
0.56503832 0.015150395 0.70406163 1.0511061e-38
0.57544935 0.01487824 0.70538425 1.6134242e-38
0.58545071 0.014818235 0.70543206 1.5120083e-38
0.59497923 0.015725225 0.70534825 1.5120083e-38
0.60446966 0.015516507 0.70567966 1.5027888e-38
0.61418217 0.014922407 0.70588475 1.604204e-38
0.62117183 0.014599571 0.70446455 1.6963996e-38
0.56807566 0.022198278 0.70139396 1.0602497e-38
0.57483435 0.025172824 0.70320123 1.539667e-38
0.58484834 0.025117613 0.70422381 1.539667e-38
0.59463114 0.025301103 0.70494401 1.5120083e-38
0.60443568 0.024703003 0.70469594 1.5304475e-38
0.6127997 0.023906976 0.7023294 1.4935692e-38
0.57810217 0.031746469 0.70156682 1.2262019e-38
0.58560526 0.034670327 0.70276827 1.659485e-38
0.59439272 0.034485217 0.70459676 1.6871799e-38
0.60395712 0.032012068 0.70299143 1.5765451e-38
0.58841693 0.040463977 0.70098102 1.3091779e-38
0.5917291 0.041304484 0.70201105 1.4658738e-38
0.45729315 0.19806561 0.70381343 4.6021907e-39
0.46437481 0.19741841 0.70461106 6.4457417e-39
0.47178757 0.19859803 0.70320821 8.0177688e-39
0.44849861 0.20783697 0.70345348 4.5125286e-39
0.45341894 0.20380002 0.70663518 4.7851372e-39
0.46530139 0.20111988 0.70840782 6.1648164e-39
0.4744193 0.20488907 0.70746851 6.6268792e-39
0.43976712 0.21926516 0.70122033 4.9774836e-39
0.44497964 0.21500194 0.70578974 4.4178008e-39
0.45026529 0.21041331 0.70928812 4.6925786e-39
0.47689134 0.21680582 0.70674717 6.6247114e-39
0.43675983 0.22554703 0.70489669 4.3266898e-39
0.44187137 0.22223535 0.7078222 4.7844141e-39
0.45157114 0.22717391 0.70959669 4.5092734e-39
0.46998829 0.2282339 0.7096296 6.4410404e-39
0.47419378 0.22299796 0.70907527 6.5328759e-39
0.42976591 0.23739922 0.70112467 3.864627e-39
0.43306485 0.2346441 0.70605737 4.3248821e-39
0.46911347 0.23259397 0.7084232 6.4410404e-39
0.43434441 0.24476457 0.70603043 4.3248807e-39
0.44060338 0.24926497 0.70922273 3.9564597e-39
0.45855832 0.24938671 0.70667136 6.2570106e-39
0.46223137 0.24469709 0.70782799 6.3488461e-39
0.43835327 0.25121585 0.70177668 4.327773e-39
0.4448778 0.25296506 0.70571232 4.3252422e-39
0.45330042 0.2514635 0.70840603 6.1648164e-39
0.52892715 -0.33119467 0.71206933 3.043993e-39
0.53322917 -0.33358291 0.71608454 2.9517974e-39
0.52469629 -0.32418159 0.7142213 2.3064084e-39
0.53063369 -0.32954597 0.71959424 2.9517932e-39
0.52421546 -0.31467974 0.71546412 2.7803387e-39
0.52536035 -0.30499497 0.71468377 2.789321e-39
0.52763867 -0.29497471 0.71508598 2.7900399e-39
0.52894515 -0.28777036 0.71437252 2.7886022e-39
0.53111857 -0.28339726 0.71554822 2.7896812e-39
0.53241813 -0.27522466 0.71508753 2.7907588e-39
0.53436136 -0.26513407 0.71502787 2.7903986e-39
0.53587371 -0.25474742 0.71501672 2.7907574e-39
0.53708184 -0.24508585 0.71498805 2.8825929e-39
0.53828192 -0.23515707 0.71481842 3.2502936e-39
0.53938824 -0.22552021 0.71443915 3.2502936e-39
0.54020774 -0.22197604 0.71813262 2.7903986e-39
0.53987163 -0.21808943 0.71119481 4.4387642e-39
0.54083067 -0.21459955 0.71558797 2.7903986e-39
0.54188454 -0.20510881 0.71490228 2.7871644e-39
0.54304969 -0.19482701 0.71536833 2.7875246e-39
0.54419237 -0.18546447 0.71541929 2.7868057e-39
0.54724944 -0.17524296 0.71445626 2.7810562e-39
0.54935628 -0.16758423 0.71386272 2.8685799e-39
0.55142218 -0.1631666 0.71437711 2.8667834e-39
0.54313177 -0.15740468 0.71758401 2.8822411e-39
0.55623686 -0.15833138 0.71361375 3.2301877e-39
0.56378168 -0.15680359 0.71362424 3.5979053e-39
0.45723051 0.20685142 0.71158087 5.6127272e-39
0.46496189 0.20605171 0.71208906 6.2570106e-39
0.47196591 0.20847982 0.71170616 6.4410404e-39
0.44858745 0.21728012 0.71110302 5.0606381e-39
0.45472407 0.21510915 0.71306622 5.8885925e-39
0.46476999 0.21464422 0.71392882 6.4410404e-39
0.4732748 0.21441746 0.71184433 6.6247114e-39
0.43924081 0.22870965 0.71053076 5.1524736e-39
0.4454715 0.22546896 0.71206129 5.7045627e-39
0.4547067 0.2248459 0.71431696 6.1648164e-39
0.46423119 0.22489704 0.71334654 6.6247114e-39
0.47135368 0.2225102 0.71094626 6.6247114e-39
0.4378975 0.23589724 0.71166843 5.1528323e-39
0.44473282 0.23465684 0.71363467 6.0729809e-39
0.45449916 0.23506169 0.71409178 6.4410404e-39
0.46329579 0.23395948 0.7119078 6.6247114e-39
0.43798378 0.24258527 0.71129614 4.9688026e-39
0.44458243 0.24484964 0.71284145 5.796757e-39
0.45363128 0.24382029 0.71307564 6.4406816e-39
0.46048218 0.24176951 0.71128881 6.5328759e-39
0.44763079 0.25045848 0.71084434 5.2446678e-39
0.5357312 -0.33434308 0.72155476 2.9517932e-39
0.51686406 -0.3296822 0.72963572 2.7860868e-39
0.52565098 -0.32300845 0.72549081 1.9372531e-39
0.52531266 -0.31542915 0.72520548 2.7767444e-39
0.52673548 -0.30501524 0.72496885 2.7903986e-39
0.52875036 -0.29560953 0.72471231 2.7903986e-39
0.53020841 -0.29163074 0.72828853 2.7903986e-39
0.52987552 -0.28923455 0.7213679 2.7907588e-39
0.53146625 -0.28468785 0.72519106 2.7903986e-39
0.5335151 -0.27467656 0.72504592 2.7903986e-39
0.5353775 -0.26476967 0.72522068 2.7903986e-39
0.53677756 -0.25495723 0.72501957 2.7903986e-39
0.54474461 -0.25740764 0.72224438 4.8894078e-39
0.53803247 -0.24508423 0.72478241 2.7903986e-39
0.53928059 -0.2354295 0.72464764 2.7903986e-39
0.54019654 -0.23225909 0.72831059 2.7903986e-39
0.53971064 -0.22838616 0.72094226 2.7907588e-39
0.54086787 -0.22443868 0.72557533 2.7903986e-39
0.54200935 -0.21498571 0.72475314 2.7903986e-39
0.54332274 -0.20501782 0.72515219 2.7903986e-39
0.54431313 -0.19512339 0.72486478 2.7903986e-39
0.54528934 -0.18506616 0.72531927 2.7903986e-39
0.54665697 -0.17466548 0.72510827 2.7907602e-39
0.54853284 -0.1670285 0.723575 2.8840362e-39
0.55271101 -0.16392304 0.72579813 2.9773164e-39
0.55737376 -0.15870211 0.72383314 2.965453e-39
0.56228065 -0.15620187 0.72749293 3.1415864e-39
0.45052427 0.23578587 0.72049683 5.9945236e-39
0.53354871 -0.33253711 0.73734838 2.9521561e-39
0.52782273 -0.32429054 0.73472053 1.8450575e-39
0.52741843 -0.31498468 0.73501724 2.8671435e-39
0.52811688 -0.30495188 0.73496181 2.7824939e-39
0.529486 -0.29725289 0.73485345 2.7828526e-39
0.53053129 -0.29254499 0.73576891 2.7799786e-39
0.532148 -0.28499579 0.73506957 2.781775e-39
0.53414464 -0.27514285 0.73483449 2.781775e-39
0.53566384 -0.265158 0.73532116 2.7806974e-39
0.53718591 -0.25487912 0.73495704 2.7821352e-39
0.53888673 -0.24454188 0.73477829 2.782854e-39
0.53987002 -0.23861007 0.73462391 2.7850092e-39
0.54096681 -0.23348762 0.73526561 2.7814163e-39
0.54177022 -0.22513165 0.73485923 2.7839316e-39
0.54303789 -0.21486297 0.73491377 2.7842904e-39
0.5442766 -0.20474282 0.73526531 2.7839316e-39
0.54532522 -0.19531363 0.73489988 2.785368e-39
0.54645681 -0.18482897 0.73544413 2.785368e-39
0.54790437 -0.1755214 0.73457617 2.7878861e-39
0.55106086 -0.17196298 0.73837721 3.0583717e-39
0.54946679 -0.16950068 0.73312664 2.7903986e-39
0.55373162 -0.16481462 0.73650289 3.0662751e-39
0.55725348 -0.15828972 0.7355783 3.1512876e-39
0.56476605 -0.15702291 0.73337501 3.2316297e-39
0.57121348 -0.15663578 0.73361421 3.32131e-39
0.53504795 -0.3333202 0.74867201 2.9517932e-39
0.52860326 -0.32367986 0.74528629 1.9372545e-39
0.53098619 -0.32908297 0.74573457 2.9517932e-39
0.5675891 -0.32719728 0.7490108 4.9815992e-39
0.52917933 -0.31508401 0.74493569 2.9517932e-39
0.53010499 -0.31071132 0.74855763 2.9517932e-39
0.57414371 -0.3114906 0.74959081 4.8893938e-39
0.52954376 -0.3059831 0.74230337 2.9517932e-39
0.53049421 -0.304012 0.74715543 2.9517932e-39
0.57685566 -0.30330074 0.74882978 4.7049927e-39
0.52745527 -0.29531991 0.74581599 3.5110682e-39
0.53140879 -0.29479373 0.74501693 2.9517932e-39
0.53311592 -0.28517327 0.74473506 2.9517932e-39
0.5347783 -0.27505121 0.7450285 2.8603164e-39
0.53592908 -0.26501578 0.74528003 2.9517932e-39
0.5827803 -0.26183459 0.74908513 5.2581959e-39
0.53734607 -0.2551235 0.74518538 2.9517932e-39
0.58201855 -0.25838095 0.74993151 5.3503902e-39
0.53899187 -0.24542744 0.74485278 2.9517932e-39
0.54020572 -0.24103482 0.74894887 2.9517932e-39
0.53986287 -0.2394096 0.74243122 2.9517932e-39
0.54090732 -0.23490132 0.74540907 2.9517932e-39
0.54264611 -0.22499317 0.7452296 2.9517932e-39
0.5884136 -0.22830649 0.74972796 5.6269574e-39
0.54408586 -0.21526872 0.74525028 2.9517932e-39
0.59106731 -0.21660915 0.74910563 6.0872069e-39
0.54553062 -0.20529613 0.74530518 2.9517932e-39
0.57261831 -0.20792857 0.74775529 2.7875246e-39
0.59237051 -0.20198491 0.74996972 5.6269616e-39
0.54678124 -0.19479902 0.74506998 2.9517932e-39
0.54815149 -0.18526103 0.74501836 2.9517932e-39
0.55034018 -0.18276922 0.74952054 3.0443545e-39
0.54844135 -0.17763929 0.74329764 2.9528722e-39
0.55157685 -0.17404145 0.745992 2.9521547e-39
0.58278668 -0.17389403 0.74626333 3.043993e-39
0.55610758 -0.16528632 0.74450421 2.953591e-39
0.5609113 -0.16100027 0.74404669 2.9517932e-39
0.55987328 -0.15958706 0.74985498 2.9517932e-39
0.5636428 -0.15706874 0.74498498 3.0457909e-39
0.53688574 -0.33303174 0.75539875 2.582998e-39
0.5435347 -0.33323881 0.7586711 3.4127587e-39
0.55600816 -0.33092082 0.75584203 4.5206155e-39
0.56344533 -0.33235955 0.75031775 4.7968492e-39
0.5298425 -0.32235205 0.751176 1.568465e-39
0.53465068 -0.32474187 0.75503808 2.6752049e-39
0.54469001 -0.32517499 0.75844634 3.2287486e-39
0.55503595 -0.32454586 0.75642747 5.0738019e-39
0.56215793 -0.32393879 0.75407726 5.1660017e-39
0.5299356 -0.3187502 0.75106227 2.9517932e-39
0.53385127 -0.31468201 0.75549072 3.5979067e-39
0.5446167 -0.3148056 0.75894552 4.889405e-39
0.55506724 -0.31523758 0.75785547 5.0738019e-39
0.56381822 -0.31468764 0.7554028 5.1660017e-39
0.57234025 -0.31510502 0.75242323 4.1510959e-39
0.53410423 -0.30515495 0.75605792 3.4131483e-39
0.54411507 -0.30817589 0.75974029 4.7972094e-39
0.55531877 -0.30579036 0.75920188 5.0738019e-39
0.56453246 -0.30460319 0.75670683 5.1660017e-39
0.57218522 -0.30392417 0.75294137 5.1660003e-39
0.53475457 -0.29510909 0.75557578 3.2283899e-39
0.55670112 -0.2951884 0.75927836 5.1660003e-39
0.56475723 -0.2949208 0.75683874 5.1660003e-39
0.57232499 -0.29460493 0.75391942 5.1660017e-39
0.53652686 -0.28508383 0.75518668 3.3205897e-39
0.54094732 -0.28251281 0.75917292 3.5053453e-39
0.55567962 -0.28446183 0.75889051 5.0738033e-39
0.56483436 -0.28502637 0.75670815 5.1660003e-39
0.57316095 -0.28444698 0.75393081 5.1660003e-39
0.53749514 -0.27463728 0.75430173 3.2287528e-39
0.54210311 -0.27405787 0.75894272 3.5979067e-39
0.55476129 -0.27497098 0.75916737 5.0738019e-39
0.56476706 -0.27505064 0.75674331 5.1660003e-39
0.5738371 -0.27450797 0.75385153 5.1660017e-39
0.53792995 -0.26487455 0.75325364 3.0443545e-39
0.54211152 -0.26432955 0.75843346 3.7823021e-39
0.55492479 -0.26516291 0.75902468 5.0738019e-39
0.56458986 -0.26500776 0.75689822 5.0738047e-39
0.57466239 -0.26489606 0.75357926 5.1660017e-39
0.53877205 -0.25537238 0.7526468 2.951796e-39
0.54312462 -0.25438857 0.75807488 3.6901037e-39
0.55598712 -0.25541392 0.75900376 5.0738047e-39
0.56476867 -0.25522125 0.75686944 5.0738047e-39
0.57410985 -0.25470209 0.75432336 5.1660003e-39
0.58149064 -0.25376928 0.75109071 5.2581959e-39
0.53964126 -0.24689981 0.75142801 2.9517932e-39
0.54341888 -0.2445185 0.75691682 3.5975451e-39
0.55706954 -0.24513075 0.75937772 5.1660003e-39
0.56435156 -0.24549501 0.75744289 5.1659989e-39
0.5745033 -0.24521667 0.75480801 5.1659989e-39
0.58182377 -0.24474071 0.75243086 5.1660017e-39
0.54473329 -0.23482355 0.75629985 3.5053453e-39
0.55616134 -0.23571438 0.75982207 4.9816034e-39
0.56544453 -0.23516805 0.75827885 5.1660003e-39
0.57532609 -0.23495242 0.75556308 5.1660003e-39
0.58226377 -0.23514736 0.75331223 5.1660017e-39
0.54631203 -0.22494653 0.75554901 3.3209512e-39
0.55261749 -0.22346947 0.75975442 4.612451e-39
0.56624645 -0.22592969 0.7591421 5.1660003e-39
0.57458913 -0.22503479 0.75697833 5.1660003e-39
0.58361614 -0.22372167 0.75364208 5.2581945e-39
0.54735166 -0.21484298 0.75417566 3.1361914e-39
0.55237108 -0.2157525 0.75922143 4.1514574e-39
0.56875181 -0.21567298 0.75962633 1.0880987e-38
0.57496041 -0.21483572 0.75801778 1.1526351e-38
0.5829348 -0.21466984 0.75497937 7.1017274e-39
0.5483799 -0.20494764 0.75383103 3.0439944e-39
0.55167788 -0.20367207 0.75838232 3.4131511e-39
0.57521141 -0.20513549 0.75854677 1.3358259e-38
0.58389938 -0.20509551 0.75573909 1.1523804e-38
0.54892355 -0.19537713 0.75247878 2.9517932e-39
0.55176955 -0.19452105 0.75755197 3.2291129e-39
0.57596278 -0.19543074 0.75851625 1.0864647e-38
0.5848636 -0.19472843 0.75577915 8.0189487e-39
0.59002763 -0.19953223 0.75252634 5.1660017e-39
0.54956597 -0.18844347 0.75043231 2.9517932e-39
0.55278444 -0.18476468 0.7556482 3.0443545e-39
0.56624603 -0.18212624 0.75308669 8.7597759e-39
0.57643127 -0.184699 0.75798655 1.0683144e-38
0.58561766 -0.18493021 0.75507945 1.6589437e-38
0.55515951 -0.17465879 0.7552169 3.0443545e-39
0.56926495 -0.17169361 0.75961405 1.1986231e-38
0.57449114 -0.17506841 0.75830066 1.400978e-38
0.58432156 -0.17523657 0.75485396 1.5021402e-38
0.59006238 -0.17484367 0.75248837 2.0928408e-38
0.55695504 -0.16562046 0.75406641 3.1365558e-39
0.56495935 -0.16446602 0.75725442 4.1510973e-39
0.57423252 -0.16467452 0.75737292 4.6116943e-39
0.58216423 -0.16589497 0.75546795 5.8109815e-39
0.56535149 -0.15832078 0.75182384 3.6901065e-39
0.57411265 -0.15848547 0.75419295 3.7823021e-39
0.54844749 -0.33291864 0.76025957 3.0439776e-39
0.55042785 -0.33191675 0.76077861 3.1361704e-39
0.54899573 -0.32867748 0.76018584 5.4410514e-39
0.55068791 -0.32986635 0.76047784 2.8599675e-39
0.53942049 -0.30220127 0.76012981 4.7972066e-39
0.5452264 -0.3036114 0.76048493 4.7972094e-39
0.5514195 -0.30220237 0.7603839 5.0738019e-39
0.53931361 -0.29553509 0.76025611 4.5202511e-39
0.54437083 -0.29488379 0.76100951 4.7050109e-39
0.55156821 -0.29484865 0.76067477 5.0738047e-39
0.54498523 -0.28514624 0.76094872 4.704648e-39
0.55132687 -0.28675336 0.76030314 5.0738019e-39
0.54589009 -0.27519867 0.76042569 4.7046494e-39
0.546942 -0.26536012 0.76044798 4.704648e-39
0.55105585 -0.26042771 0.76005232 5.1660003e-39
0.54825503 -0.2560924 0.76037061 4.4280513e-39
0.5510273 -0.25440735 0.76040787 4.9816062e-39
0.54833204 -0.24553032 0.76038104 4.7968436e-39
0.55204213 -0.24476677 0.76041675 4.797208e-39
0.56174624 -0.24466905 0.76803017 4.4280541e-39
0.55436742 -0.23486067 0.76034421 4.797208e-39
0.56154197 -0.23008975 0.76987189 3.4131469e-39
0.55666238 -0.22590993 0.76065034 4.7050123e-39
0.56163776 -0.22439046 0.76032525 4.8894078e-39
0.55678123 -0.21356487 0.76046652 4.796845e-39
0.56336248 -0.21495537 0.76057863 6.9173305e-39
0.55618984 -0.20506027 0.76119661 4.4280527e-39
0.56521475 -0.20515265 0.76074481 1.5027933e-38
0.55649257 -0.19498232 0.76181775 4.2436558e-39
0.56477219 -0.19519445 0.76132953 1.4106705e-38
0.57085389 -0.19376858 0.76009083 1.3178198e-38
0.55728132 -0.18558878 0.76151377 3.8745034e-39
0.56436718 -0.18494891 0.76170212 1.5304517e-38
0.57071918 -0.18617348 0.76024109 1.5024275e-38
0.5588423 -0.17600137 0.76098984 3.5979053e-39
0.56456256 -0.17512169 0.76091838 1.3829035e-38
0.56378126 -0.16917104 0.76015025 4.7046452e-39
