# .PCD v0.7 - Point Cloud Data file format
VERSION 0.7
FIELDS x y z rgb
SIZE 4 4 4 4
TYPE F F F F
COUNT 1 1 1 1
WIDTH 983
HEIGHT 1
VIEWPOINT 0 0 0 1 0 0 0
POINTS 983
DATA ascii
1.4754136 -1.1248368 2.3841858e-07 5.2551509e-39
1.4861003 -1.12563 1.9073487e-07 5.2551509e-39
1.4957899 -1.1245077 2.3841858e-07 5.2551509e-39
1.5066364 -1.1253054 2.3841858e-07 5.2551509e-39
1.5153726 -1.1259483 0 5.2551509e-39
1.5230665 -1.1246544 2.6226044e-07 5.2551509e-39
1.5346841 -1.1245667 1.1920929e-07 5.2551509e-39
1.5457426 -1.125378 0.00016029207 5.2551509e-39
1.557646 -1.1252922 1.9073487e-07 5.2551509e-39
1.5655704 -1.1239767 1.1920929e-07 5.2551509e-39
1.5746872 -1.1246293 1.66893e-07 5.2551509e-39
1.5861623 -1.1254504 2.3841858e-07 5.2551509e-39
1.5942475 -1.1241218 1.5894572e-07 5.2551509e-39
1.60355 -1.1247814 1.1920929e-07 5.2551509e-39
1.6152598 -1.1256115 2.3841858e-07 5.2551509e-39
1.6258805 -1.1244363 1.9073487e-07 5.2551509e-39
1.635384 -1.1251036 1.1920929e-07 5.2551509e-39
1.6449559 -1.1257757 2.3841858e-07 5.2551509e-39
1.6557966 -1.1245892 4.7683717e-08 5.2551509e-39
1.6654977 -1.125264 1.1920929e-07 5.2551509e-39
1.6746571 -1.1249199 1.1920929e-07 5.2551509e-39
1.6838671 -1.1245751 3.5762787e-07 5.2551509e-39
1.6937621 -1.1252569 1.1920929e-07 5.2551509e-39
1.7055947 -1.1250805 2.3841858e-07 5.2551509e-39
1.7149998 -1.1247329 2.3841858e-07 5.2551509e-39
1.7251046 -1.1254221 1.9073487e-07 5.2551509e-39
1.733996 -1.1240287 2.3841858e-07 5.2551509e-39
1.74423 -1.1247202 2.3841858e-07 5.2551509e-39
1.7571169 -1.1255909 2.1457672e-07 5.2551509e-39
1.7661999 -1.1241831 1.1920929e-07 5.2551509e-39
1.7766548 -1.1248825 1.9073487e-07 5.2551509e-39
1.7858557 -1.1254981 2.3841858e-07 5.2551509e-39
1.7964466 -1.1241649 1.1920929e-07 5.2551509e-39
1.8057673 -1.1247823 2.3841858e-07 5.2551509e-39
1.8151519 -1.1254039 2.6226044e-07 5.2551509e-39
1.8259404 -1.1240572 1.1920929e-07 5.2551509e-39
1.8354489 -1.1246808 1.9073487e-07 5.2551509e-39
1.8463796 -1.1253973 1.1920929e-07 5.2551509e-39
1.8532526 -1.1258478 2.3841858e-07 5.2551509e-39
1.8643167 -1.1244867 1.1920929e-07 5.2551509e-39
1.8740554 -1.1251187 1.1920929e-07 5.2551509e-39
1.8838621 -1.1257551 1.9073487e-07 5.2551509e-39
1.8951367 -1.1243796 2.3841858e-07 5.2551509e-39
1.9050757 -1.125018 1.66893e-07 5.2551509e-39
1.9165028 -1.125752 2.3841858e-07 5.2551509e-39
1.9236892 -1.1262138 1.1920929e-07 5.2551509e-39
1.9352586 -1.1248229 1.66893e-07 5.2551509e-39
1.9454436 -1.1254702 3.5762787e-07 5.2551509e-39
1.9527613 -1.1237899 1.1920929e-07 5.2551509e-39
1.9638042 -1.1255598 1.7881393e-07 5.2551509e-39
1.9749149 -1.1251833 2.3841858e-07 5.2551509e-39
1.9861106 -1.1248025 2.3841858e-07 5.2551509e-39
1.9973751 -1.124421 1.1920929e-07 5.2551509e-39
2.0049312 -1.124891 3.5762787e-07 5.2551509e-39
2.0125225 -1.1253637 1.1920929e-07 5.2551509e-39
2.0239794 -1.1249788 2.3841858e-07 5.2551509e-39
2.0355082 -1.1245935 1.1920929e-07 5.2551509e-39
2.0432415 -1.1250696 1.1920929e-07 5.2551509e-39
2.0541339 -1.1257404 2.3841858e-07 5.2551509e-39
2.0666611 -1.1242902 1.1920929e-07 5.2551509e-39
2.0745413 -1.1247702 1.1920929e-07 5.2551509e-39
2.0828836 -1.1238064 0.0012477071 5.2551509e-39
2.0944104 -1.1248617 1.1920929e-07 5.2551509e-39
2.1064377 -1.124465 2.3841858e-07 5.2551509e-39
2.1145072 -1.1249512 1.1920929e-07 5.2551509e-39
2.1226151 -1.1254394 2.3841858e-07 5.2551509e-39
2.1348553 -1.1250448 1.7881393e-07 5.2551509e-39
2.3947749 -1.1223159 2.3841858e-07 5.2551509e-39
0.80814761 -1.1154401 2.3841858e-07 5.2551509e-39
0.81426948 -1.1146249 1.1920929e-07 5.2551509e-39
0.82506549 -1.114929 1.7881393e-07 5.2551509e-39
0.83597082 -1.1152377 2.0590696e-07 5.2551509e-39
0.84541017 -1.1146995 2.0590696e-07 5.2551509e-39
0.85522419 -1.1150824 1.6255812e-07 5.2551509e-39
0.86454475 -1.1150296 1.1920929e-07 5.2551509e-39
0.87394768 -1.1149749 1.1920929e-07 5.2551509e-39
0.88402957 -1.1153657 2.2758137e-07 5.2551509e-39
0.89390564 -1.1148157 1.6255812e-07 5.2551509e-39
0.90420645 -1.1147239 1.5497207e-07 5.2551509e-39
0.91393149 -1.1151545 1.66893e-07 5.2551509e-39
0.92408419 -1.1145959 2.3841858e-07 5.2551509e-39
0.93398923 -1.1150284 2.3841858e-07 5.2551509e-39
0.94467634 -1.1149374 1.6255812e-07 5.2551509e-39
0.95546705 -1.114844 8.3446501e-08 5.2551509e-39
0.96565706 -1.1152854 1.9073487e-07 5.2551509e-39
0.97629738 -1.1147139 2.026558e-07 5.2551509e-39
0.9849835 -1.1154627 1.7029899e-07 5.2551509e-39
0.9942584 -1.1147547 1.4305115e-07 5.2551509e-39
1.0048084 -1.1152017 2.026558e-07 5.2551509e-39
1.0161948 -1.1151088 2.0590696e-07 5.2551509e-39
1.0254577 -1.1151301 2.3841858e-07 5.2551509e-39
1.0344266 -1.1146606 1.5497207e-07 5.2551509e-39
1.0464907 -1.1150572 2.026558e-07 5.2551509e-39
1.0556196 -1.114583 2.1855037e-07 5.2551509e-39
1.0655961 -1.1151019 1.5497207e-07 5.2551509e-39
1.0748764 -1.114624 2.3841858e-07 5.2551509e-39
1.0850195 -1.1151474 2.026558e-07 5.2551509e-39
1.0944548 -1.1146657 2.3841858e-07 5.2551509e-39
1.1047682 -1.1151936 1.66893e-07 5.2551509e-39
1.1143626 -1.1147081 1.7881393e-07 5.2551509e-39
1.1248509 -1.1152408 2.3841858e-07 5.2551509e-39
1.1346086 -1.1147513 1.7881393e-07 5.2551509e-39
1.1452761 -1.1152886 1.9073487e-07 5.2551509e-39
1.1552012 -1.1147951 1.7881393e-07 5.2551509e-39
1.1656332 -1.1148163 1.9868214e-07 5.2551509e-39
1.1761494 -1.1148397 1.1920929e-07 5.2551509e-39
1.1846304 -1.1155115 1.7881393e-07 5.2551509e-39
1.1953176 -1.1144437 2.1192763e-07 5.2551509e-39
1.2060922 -1.1155629 2.3841858e-07 5.2551509e-39
1.2147825 -1.1145926 1.1920929e-07 5.2551509e-39
1.2235337 -1.1152741 1.7881393e-07 5.2551509e-39
1.2345634 -1.1147428 7.9472862e-08 5.2551509e-39
1.2456841 -1.1153244 2.3841858e-07 5.2551509e-39
1.2546549 -1.1143343 2.3841858e-07 5.2551509e-39
1.26369 -1.1150261 1.1920929e-07 5.2551509e-39
1.2750783 -1.1150494 1.9868214e-07 5.2551509e-39
1.2865626 -1.1150749 1.7881393e-07 5.2551509e-39
1.2958276 -1.115778 1.7881393e-07 5.2551509e-39
1.3051602 -1.1147732 2.3841858e-07 5.2551509e-39
1.3139311 -1.1160125 0.00029681649 5.2551509e-39
1.3240303 -1.1144637 2.3841858e-07 5.2551509e-39
1.3335695 -1.1151751 1.7881393e-07 5.2551509e-39
1.3436611 -1.1150579 2.3841858e-07 5.2551509e-39
1.3528595 -1.1148684 1.7881393e-07 5.2551509e-39
1.365417 -1.1150737 0.00031323079 5.2551509e-39
1.377378 -1.1149174 1.5894572e-07 5.2551509e-39
1.3868154 -1.1147231 1.4305115e-07 5.2551509e-39
1.3973252 -1.1146003 1.1920929e-07 5.2551509e-39
1.4074119 -1.1153322 1.1920929e-07 5.2551509e-39
1.4150246 -1.1149917 2.3841858e-07 5.2551509e-39
1.4226856 -1.1146476 2.3841858e-07 5.2551509e-39
1.4329654 -1.1153866 1.7881393e-07 5.2551509e-39
1.4438438 -1.1152661 2.3841858e-07 5.2551509e-39
1.4537622 -1.11507 1.7881393e-07 5.2551509e-39
1.463753 -1.1148707 1.9073487e-07 5.2551509e-39
1.4748813 -1.1147448 2.3841858e-07 5.2551509e-39
1.4855641 -1.1154987 1.7881393e-07 5.2551509e-39
1.4968708 -1.1153762 2.3841858e-07 5.2551509e-39
1.5071812 -1.1151767 2.3841858e-07 5.2551509e-39
1.5153726 -1.1148211 0 5.2551509e-39
1.5241688 -1.115433 2.1457672e-07 5.2551509e-39
1.5341285 -1.1142588 1.1920929e-07 5.2551509e-39
1.5452783 -1.1150268 1.66893e-07 5.2551509e-39
1.5570816 -1.1148981 1.5894572e-07 5.2551509e-39
1.5655704 -1.114537 1.1920929e-07 5.2551509e-39
1.5735447 -1.1150811 1.9073487e-07 5.2551509e-39
1.5855865 -1.1149513 1.7881393e-07 5.2551509e-39
1.5942476 -1.1145867 1.1920929e-07 5.2551509e-39
1.6023842 -1.1151365 1.1920929e-07 5.2551509e-39
1.6146721 -1.1150054 2.3841858e-07 5.2551509e-39
1.6270653 -1.1148751 1.66893e-07 5.2551509e-39
1.6353838 -1.1154317 1.1920929e-07 5.2551509e-39
1.6443559 -1.1150607 2.3841858e-07 5.2551509e-39
1.657006 -1.1149294 7.1525577e-08 5.2551509e-39
1.6654977 -1.1154917 1.1920929e-07 5.2551509e-39
1.674657 -1.1151172 1.1920929e-07 5.2551509e-39
1.6838672 -1.1147417 3.5762787e-07 5.2551509e-39
1.692522 -1.1153092 1.1920929e-07 5.2551509e-39
1.7055949 -1.1151749 2.3841858e-07 5.2551509e-39
1.7149999 -1.1147957 2.3841858e-07 5.2551509e-39
1.7238382 -1.1153692 1.66893e-07 5.2551509e-39
1.7339962 -1.1140285 2.3841858e-07 5.2551509e-39
1.7429476 -1.1146034 2.3841858e-07 5.2551509e-39
1.7558231 -1.1154306 2.6226044e-07 5.2551509e-39
1.7661999 -1.1140757 1.1920929e-07 5.2551509e-39
1.7753445 -1.114657 1.66893e-07 5.2551509e-39
1.7858557 -1.1153252 2.3841858e-07 5.2551509e-39
1.7957828 -1.1149346 1.1920929e-07 5.2551509e-39
1.8057674 -1.1145431 2.3841858e-07 5.2551509e-39
1.8164971 -1.1152182 1.9073487e-07 5.2551509e-39
1.8259404 -1.1158122 1.1920929e-07 5.2551509e-39
1.8368114 -1.1144276 1.66893e-07 5.2551509e-39
1.8463795 -1.115023 1.1920929e-07 5.2551509e-39
1.8532528 -1.1154507 2.3841858e-07 5.2551509e-39
1.8636234 -1.115052 1.1920929e-07 5.2551509e-39
1.8740554 -1.1146523 1.1920929e-07 5.2551509e-39
1.8852675 -1.1153426 1.66893e-07 5.2551509e-39
1.8951367 -1.1159503 2.3841858e-07 5.2551509e-39
1.9065001 -1.1145351 1.9073487e-07 5.2551509e-39
1.9165028 -1.1151443 2.3841858e-07 5.2551509e-39
1.9236892 -1.1155821 1.1920929e-07 5.2551509e-39
1.9345336 -1.1151747 1.7881393e-07 5.2551509e-39
1.9454436 -1.1147662 3.5762787e-07 5.2551509e-39
1.9527613 -1.1152072 1.1920929e-07 5.2551509e-39
1.9630659 -1.1158278 1.9073487e-07 5.2551509e-39
1.9749148 -1.1143812 2.3841858e-07 5.2551509e-39
1.9853618 -1.1150037 2.3841858e-07 5.2551509e-39
1.9973752 -1.1135441 1.1920929e-07 5.2551509e-39
2.0049312 -1.1161695 3.5762787e-07 5.2551509e-39
2.0125225 -1.1144364 1.1920929e-07 5.2551509e-39
2.0232131 -1.1150662 2.3841858e-07 5.2551509e-39
2.0355082 -1.1135898 1.1920929e-07 5.2551509e-39
2.0432415 -1.116246 1.1920929e-07 5.2551509e-39
2.0556955 -1.1147656 1.9073487e-07 5.2551509e-39
2.0666611 -1.1154044 1.1920929e-07 5.2551509e-39
2.0745413 -1.1136365 1.1920929e-07 5.2551509e-39
2.0824587 -1.1163244 1.1920929e-07 5.2551509e-39
2.0952096 -1.1148267 1.1920929e-07 5.2551509e-39
2.1064377 -1.115473 2.3841858e-07 5.2551509e-39
2.1145072 -1.1136844 1.1920929e-07 5.2551509e-39
2.1226151 -1.1164045 2.3841858e-07 5.2551509e-39
2.135674 -1.114889 1.9073487e-07 5.2551509e-39
2.1471741 -1.1132685 1.1920929e-07 5.2551509e-39
2.1554396 -1.1114528 1.1920929e-07 5.2551509e-39
2.3947752 -1.1174362 1.1920929e-07 5.2551509e-39
0.80814761 -1.1043701 2.3841858e-07 5.2551509e-39
0.81426889 -1.1049101 1.1920929e-07 5.2551509e-39
0.82496339 -1.1048295 1.8278757e-07 5.2551509e-39
0.83625513 -1.1049361 1.9506975e-07 5.2551509e-39
0.84540957 -1.1048396 1.9073487e-07 5.2551509e-39
0.85464436 -1.1047409 1.6255812e-07 5.2551509e-39
0.86422604 -1.1049691 0.00022099115 5.2551509e-39
0.87456787 -1.1049442 1.1920929e-07 5.2551509e-39
0.88402903 -1.1053259 2.503395e-07 5.2551509e-39
0.89390504 -1.1047298 1.5497207e-07 5.2551509e-39
0.903539 -1.1051127 1.3113022e-07 5.2551509e-39
0.91393209 -1.1049755 1.5172091e-07 5.2551509e-39
0.92442477 -1.1048354 2.3841858e-07 5.2551509e-39
0.93433189 -1.1052253 2.503395e-07 5.2551509e-39
0.94467556 -1.104615 1.5497207e-07 5.2551509e-39
0.95476782 -1.1050062 8.3446501e-08 5.2551509e-39
0.96565783 -1.1048652 2.0590696e-07 5.2551509e-39
0.97665435 -1.1047213 1.9073487e-07 5.2551509e-39
0.9854967 -1.1049944 1.8732888e-07 5.2551509e-39
0.99425864 -1.1052063 1.5894572e-07 5.2551509e-39
1.0051734 -1.1050841 1.9073487e-07 5.2551509e-39
1.0156379 -1.1054209 0.00013106436 5.2551509e-39
1.025192 -1.1051748 2.2138867e-07 5.2551509e-39
1.0350759 -1.1046999 0.00046383258 5.2551509e-39
1.0457332 -1.1048172 1.0728836e-07 5.2551509e-39
1.0556196 -1.1052921 1.7881393e-07 5.2551509e-39
1.0648259 -1.1047776 1.5497207e-07 5.2551509e-39
1.0748764 -1.1052562 2.3841858e-07 5.2551509e-39
1.0842364 -1.1047373 2.026558e-07 5.2551509e-39
1.0944549 -1.1052197 2.3841858e-07 5.2551509e-39
1.1039718 -1.1046963 1.5497207e-07 5.2551509e-39
1.1143626 -1.1051828 1.7881393e-07 5.2551509e-39
1.124041 -1.1046544 2.2649765e-07 5.2551509e-39
1.1346085 -1.1051449 1.7881393e-07 5.2551509e-39
1.144864 -1.105125 1.9868214e-07 5.2551509e-39
1.1552011 -1.1051065 1.7881393e-07 5.2551509e-39
1.1656333 -1.1050861 1.7219119e-07 5.2551509e-39
1.1761494 -1.1050674 1.1920929e-07 5.2551509e-39
1.1846304 -1.1057054 1.1920929e-07 5.2551509e-39
1.1953176 -1.1045948 1.9868214e-07 5.2551509e-39
1.2060921 -1.105671 2.3841858e-07 5.2551509e-39
1.2147825 -1.1046661 1.1920929e-07 5.2551509e-39
1.2235336 -1.1053125 1.7881393e-07 5.2551509e-39
1.2345634 -1.1047372 7.9472862e-08 5.2551509e-39
1.2456841 -1.1052743 2.3841858e-07 5.2551509e-39
1.2546548 -1.1042486 2.3841858e-07 5.2551509e-39
1.26369 -1.1049043 1.1920929e-07 5.2551509e-39
1.2750783 -1.104882 1.9868214e-07 5.2551509e-39
1.2865626 -1.1048616 1.7881393e-07 5.2551509e-39
1.2958276 -1.1055278 1.7881393e-07 5.2551509e-39
1.30516 -1.1044855 2.3841858e-07 5.2551509e-39
1.3145608 -1.1051552 1.7881393e-07 5.2551509e-39
1.323555 -1.1049315 2.3841858e-07 5.2551509e-39
1.3335695 -1.1047739 1.7881393e-07 5.2551509e-39
1.3431789 -1.1054519 1.9868214e-07 5.2551509e-39
1.3533453 -1.1052969 1.9073487e-07 5.2551509e-39
1.3650655 -1.1049503 1.9868214e-07 5.2551509e-39
1.3778729 -1.1052564 1.1920929e-07 5.2551509e-39
1.3873142 -1.1050292 1.1920929e-07 5.2551509e-39
1.3968227 -1.104799 1.1920929e-07 5.2551509e-39
1.4074119 -1.1046363 1.1920929e-07 5.2551509e-39
1.4150246 -1.106053 2.3841858e-07 5.2551509e-39
1.4221737 -1.1047529 2.3841858e-07 5.2551509e-39
1.4329654 -1.1045886 1.7881393e-07 5.2551509e-39
1.443324 -1.105292 2.3841858e-07 5.2551509e-39
1.4542861 -1.1051302 1.66893e-07 5.2551509e-39
1.464281 -1.1048961 1.7881393e-07 5.2551509e-39
1.4743493 -1.1046585 2.3841858e-07 5.2551509e-39
1.4855641 -1.1044905 1.7881393e-07 5.2551509e-39
1.4963304 -1.1052073 2.3841858e-07 5.2551509e-39
1.5080537 -1.1046559 0.00090035424 5.2551509e-39
1.5153726 -1.1055485 0 5.2551509e-39
1.5236177 -1.1051637 2.3841858e-07 5.2551509e-39
1.5352396 -1.1049966 1.1920929e-07 5.2551509e-39
1.5463983 -1.1057283 1.9073487e-07 5.2551509e-39
1.5565172 -1.1045098 1.1920929e-07 5.2551509e-39
1.5655704 -1.1050974 1.1920929e-07 5.2551509e-39
1.5746872 -1.105689 1.66893e-07 5.2551509e-39
1.5850108 -1.1044582 1.66893e-07 5.2551509e-39
1.5942475 -1.1050515 1.1920929e-07 5.2551509e-39
1.60355 -1.1056491 1.1920929e-07 5.2551509e-39
1.6140845 -1.1044056 2.3841858e-07 5.2551509e-39
1.6258805 -1.1051556 1.9073487e-07 5.2551509e-39
1.635384 -1.1057596 1.1920929e-07 5.2551509e-39
1.6437562 -1.1043518 2.3841858e-07 5.2551509e-39
1.6557966 -1.1051093 4.7683717e-08 5.2551509e-39
1.6654977 -1.1057194 1.1920929e-07 5.2551509e-39
1.6740448 -1.104297 1.1920929e-07 5.2551509e-39
1.6838671 -1.1049083 3.5762787e-07 5.2551509e-39
1.6937621 -1.1055243 1.1920929e-07 5.2551509e-39
1.7049694 -1.104241 2.3841858e-07 5.2551509e-39
1.7149998 -1.1048585 2.3841858e-07 5.2551509e-39
1.7251046 -1.1054808 1.9073487e-07 5.2551509e-39
1.733996 -1.1040282 2.3841858e-07 5.2551509e-39
1.74423 -1.1046516 2.3841858e-07 5.2551509e-39
1.7571169 -1.1054364 2.1457672e-07 5.2551509e-39
1.7661999 -1.1059897 1.1920929e-07 5.2551509e-39
1.7772089 -1.1042062 3.5602749e-05 5.2551509e-39
1.7858557 -1.1051524 2.3841858e-07 5.2551509e-39
1.795119 -1.1057104 1.1920929e-07 5.2551509e-39
1.8057673 -1.1043041 2.3841858e-07 5.2551509e-39
1.8151522 -1.1048632 1.66893e-07 5.2551509e-39
1.8259405 -1.1055059 1.1920929e-07 5.2551509e-39
1.8361301 -1.1050779 1.7881393e-07 5.2551509e-39
1.8463796 -1.1046487 1.1920929e-07 5.2551509e-39
1.8532526 -1.1050537 2.3841858e-07 5.2551509e-39
1.8629299 -1.1056237 1.1920929e-07 5.2551509e-39
1.8740554 -1.1041858 1.1920929e-07 5.2551509e-39
1.8838621 -1.1047571 1.9073487e-07 5.2551509e-39
1.8951367 -1.1054138 2.3841858e-07 5.2551509e-39
1.9057879 -1.1049757 1.7881393e-07 5.2551509e-39
1.9165028 -1.1045365 2.3841858e-07 5.2551509e-39
1.9236892 -1.1049505 1.1920929e-07 5.2551509e-39
1.9338083 -1.1055331 1.9073487e-07 5.2551509e-39
1.9454436 -1.1040623 3.5762787e-07 5.2551509e-39
1.9533025 -1.1053183 0.0012766825 5.2551509e-39
1.9645427 -1.1051493 1.66893e-07 5.2551509e-39
1.9749148 -1.1057396 2.3841858e-07 5.2551509e-39
1.9868591 -1.1042511 2.3841858e-07 5.2551509e-39
1.9973752 -1.1048427 1.1920929e-07 5.2551509e-39
2.0049312 -1.1052675 3.5762787e-07 5.2551509e-39
2.0125225 -1.1056945 1.1920929e-07 5.2551509e-39
2.0239794 -1.1052437 2.0861626e-07 5.2551509e-39
2.0355082 -1.1047866 1.1920929e-07 5.2551509e-39
2.0432415 -1.1052166 1.1920929e-07 5.2551509e-39
2.054915 -1.1047573 1.7881393e-07 5.2551509e-39
2.0666611 -1.1065183 1.1920929e-07 5.2551509e-39
2.0745413 -1.1047295 1.1920929e-07 5.2551509e-39
2.0824587 -1.1051644 1.1920929e-07 5.2551509e-39
2.0944104 -1.1046995 1.1920929e-07 5.2551509e-39
2.1064377 -1.1064812 2.3841858e-07 5.2551509e-39
2.1145072 -1.104671 1.1920929e-07 5.2551509e-39
2.1226151 -1.1051109 2.3841858e-07 5.2551509e-39
2.1348553 -1.1046401 1.7881393e-07 5.2551509e-39
2.1471741 -1.1064433 1.1920929e-07 5.2551509e-39
2.1554396 -1.104611 1.1920929e-07 5.2551509e-39
2.1889052 -1.1041015 1.1920929e-07 5.2551509e-39
2.1973739 -1.1022412 3.5762787e-07 5.2551509e-39
0.80814761 -1.094684 2.3841858e-07 5.2551509e-39
0.81426948 -1.0951954 1.1920929e-07 5.2551509e-39
0.82484496 -1.0946839 1.7881393e-07 5.2551509e-39
0.83565748 -1.0951588 2.026558e-07 5.2551509e-39
0.84541029 -1.0949798 2.0590696e-07 5.2551509e-39
0.85525352 -1.0947977 1.5497207e-07 5.2551509e-39
0.86454475 -1.0951316 1.1920929e-07 5.2551509e-39
0.87394768 -1.0949893 1.1920929e-07 5.2551509e-39
0.88402957 -1.0952861 2.2758137e-07 5.2551509e-39
0.8939057 -1.0946441 1.1920929e-07 5.2551509e-39
0.90387219 -1.0954436 1.1920929e-07 5.2551509e-39
0.91393149 -1.0947963 1.66893e-07 5.2551509e-39
0.9237448 -1.0951378 2.3841858e-07 5.2551509e-39
0.93433249 -1.0949513 2.2758137e-07 5.2551509e-39
0.94502258 -1.0947614 1.66893e-07 5.2551509e-39
0.95511687 -1.0951092 7.1525577e-08 5.2551509e-39
0.96565747 -1.0949413 1.9868214e-07 5.2551509e-39
0.97594154 -1.0947931 2.026558e-07 5.2551509e-39
0.98524016 -1.0952122 1.7881393e-07 5.2551509e-39
0.99425912 -1.0951556 1.7339534e-07 5.2551509e-39
1.0055397 -1.0949613 2.026558e-07 5.2551509e-39
1.0161941 -1.0953197 1.4305115e-07 5.2551509e-39
1.0257237 -1.0945175 1.7029899e-07 5.2551509e-39
1.0348011 -1.0952033 1.66893e-07 5.2551509e-39
1.0461118 -1.0950297 1.1920929e-07 5.2551509e-39
1.0553467 -1.0952073 1.7029899e-07 5.2551509e-39
1.0652108 -1.0949093 1.5894572e-07 5.2551509e-39
1.0749475 -1.0950397 0.001157222 5.2551509e-39
1.0846276 -1.094787 1.9868214e-07 5.2551509e-39
1.0941727 -1.0949665 2.3841858e-07 5.2551509e-39
1.1043696 -1.0946625 1.5894572e-07 5.2551509e-39
1.1143626 -1.0956571 1.7881393e-07 5.2551509e-39
1.1244457 -1.0945362 2.3841858e-07 5.2551509e-39
1.1346085 -1.0955386 1.7881393e-07 5.2551509e-39
1.1444523 -1.0949664 1.9073487e-07 5.2551509e-39
1.1552011 -1.0954179 1.5894572e-07 5.2551509e-39
1.1654645 -1.0950843 0.00071859336 5.2551509e-39
1.1761494 -1.0952951 1.1920929e-07 5.2551509e-39
1.1843264 -1.0950614 1.3623919e-07 5.2551509e-39
1.1953176 -1.0947461 1.9868214e-07 5.2551509e-39
1.2060921 -1.0957792 2.3841858e-07 5.2551509e-39
1.2147825 -1.0947394 1.1920929e-07 5.2551509e-39
1.2235336 -1.0953511 1.7881393e-07 5.2551509e-39
1.2345634 -1.0947316 7.9472862e-08 5.2551509e-39
1.2456841 -1.0952243 2.3841858e-07 5.2551509e-39
1.2546549 -1.0941628 2.3841858e-07 5.2551509e-39
1.26369 -1.0947824 1.1920929e-07 5.2551509e-39
1.2745061 -1.0953119 2.0861626e-07 5.2551509e-39
1.2862493 -1.0953496 1.0326356e-05 5.2551509e-39
1.2958277 -1.0952774 1.7881393e-07 5.2551509e-39
1.3056285 -1.0950861 2.3841858e-07 5.2551509e-39
1.3145608 -1.09483 1.7881393e-07 5.2551509e-39
1.3240303 -1.0954667 2.1855037e-07 5.2551509e-39
1.3335695 -1.094373 1.7881393e-07 5.2551509e-39
1.3431789 -1.0950127 1.1920929e-07 5.2551509e-39
1.3528595 -1.095657 1.7881393e-07 5.2551509e-39
1.3650655 -1.0944235 1.9868214e-07 5.2551509e-39
1.377378 -1.0955263 1.1920929e-07 5.2551509e-39
1.3878129 -1.0953301 9.5367433e-08 5.2551509e-39
1.3973252 -1.0950668 1.1920929e-07 5.2551509e-39
1.4069055 -1.0947998 1.1920929e-07 5.2551509e-39
1.4150246 -1.0953265 2.3841858e-07 5.2551509e-39
1.4226856 -1.0949283 2.3841858e-07 5.2551509e-39
1.4324496 -1.0946583 1.9073487e-07 5.2551509e-39
1.443324 -1.0944525 2.3841858e-07 5.2551509e-39
1.4537622 -1.0951197 1.7881393e-07 5.2551509e-39
1.4648089 -1.0949161 1.66893e-07 5.2551509e-39
1.4754136 -1.0955901 2.3841858e-07 5.2551509e-39
1.4850279 -1.094367 1.66893e-07 5.2551509e-39
1.4957901 -1.0950439 2.3841858e-07 5.2551509e-39
1.5071812 -1.0948352 2.1855037e-07 5.2551509e-39
1.5153726 -1.0962759 0 5.2551509e-39
1.5230668 -1.0949003 1.66893e-07 5.2551509e-39
1.5346841 -1.0946887 1.1920929e-07 5.2551509e-39
1.5458384 -1.0953792 1.7881393e-07 5.2551509e-39
1.557646 -1.0951698 1.1920929e-07 5.2551509e-39
1.5655704 -1.0956577 1.1920929e-07 5.2551509e-39
1.5741159 -1.0952362 1.7881393e-07 5.2551509e-39
1.5861623 -1.0950241 1.9073487e-07 5.2551509e-39
1.5942476 -1.0955164 1.1920929e-07 5.2551509e-39
1.6029671 -1.0950902 1.1920929e-07 5.2551509e-39
1.6152595 -1.0948752 2.3841858e-07 5.2551509e-39
1.6270653 -1.0955864 1.66893e-07 5.2551509e-39
1.635384 -1.0941532 1.1920929e-07 5.2551509e-39
1.6449559 -1.0947233 2.3841858e-07 5.2551509e-39
1.657006 -1.0954415 7.1525577e-08 5.2551509e-39
1.6654977 -1.0939927 1.1920929e-07 5.2551509e-39
1.6752695 -1.0945685 1.1920929e-07 5.2551509e-39
1.6838672 -1.0950749 3.5762787e-07 5.2551509e-39
1.692522 -1.0955849 1.1920929e-07 5.2551509e-39
1.7062199 -1.0944102 2.3841858e-07 5.2551509e-39
1.7149999 -1.0949216 2.3841858e-07 5.2551509e-39
1.7238382 -1.0954363 1.66893e-07 5.2551509e-39
1.7339962 -1.094028 2.3841858e-07 5.2551509e-39
1.7429476 -1.0945435 1.4305115e-07 5.2551509e-39
1.7558234 -1.0952848 1.1920929e-07 5.2551509e-39
1.7661999 -1.0958823 1.1920929e-07 5.2551509e-39
1.7753445 -1.0943812 1.66893e-07 5.2551509e-39
1.7858557 -1.0949794 2.3841858e-07 5.2551509e-39
1.7964464 -1.0955822 1.1920929e-07 5.2551509e-39
1.8057673 -1.0961127 2.3841858e-07 5.2551509e-39
1.8164968 -1.0946684 1.9073487e-07 5.2551509e-39
1.8259404 -1.0951996 1.1920929e-07 5.2551509e-39
1.8354489 -1.0957345 1.9073487e-07 5.2551509e-39
1.844604 -1.0940597 0.00076181366 5.2551509e-39
1.8532528 -1.0946565 2.3841858e-07 5.2551509e-39
1.8643167 -1.0952715 1.1920929e-07 5.2551509e-39
1.8740554 -1.0958128 1.1920929e-07 5.2551509e-39
1.8852675 -1.0943352 1.66893e-07 5.2551509e-39
1.8951367 -1.094877 2.3841858e-07 5.2551509e-39
1.9050757 -1.095423 1.66893e-07 5.2551509e-39
1.9165028 -1.0939289 2.3841858e-07 5.2551509e-39
1.9236892 -1.094319 1.1920929e-07 5.2551509e-39
1.9352586 -1.0949465 1.66893e-07 5.2551509e-39
1.9454436 -1.095499 3.5762787e-07 5.2551509e-39
1.9527613 -1.0937505 1.1920929e-07 5.2551509e-39
1.9638042 -1.0954175 1.7881393e-07 5.2551509e-39
1.9749149 -1.0949374 2.3841858e-07 5.2551509e-39
1.9861107 -1.0944523 2.3841858e-07 5.2551509e-39
1.9973752 -1.0961411 1.1920929e-07 5.2551509e-39
2.0049312 -1.0943656 3.5762787e-07 5.2551509e-39
2.0125225 -1.0947675 0 5.2551509e-39
2.0247459 -1.095414 1.66893e-07 5.2551509e-39
2.0355082 -1.0959837 1.1920929e-07 5.2551509e-39
2.0432415 -1.094187 1.1920929e-07 5.2551509e-39
2.0541344 -1.0947564 1.9073487e-07 5.2551509e-39
2.0670264 -1.0944244 0.0012358893 5.2551509e-39
2.0745413 -1.0958226 1.1920929e-07 5.2551509e-39
2.0824587 -1.0940044 1.1920929e-07 5.2551509e-39
2.0944104 -1.0957396 1.1920929e-07 5.2551509e-39
2.1064377 -1.0952414 2.3841858e-07 5.2551509e-39
2.1145072 -1.0956577 1.1920929e-07 5.2551509e-39
2.1226151 -1.0938172 2.3841858e-07 5.2551509e-39
2.1348553 -1.0955726 1.7881393e-07 5.2551509e-39
2.1471741 -1.0950679 1.1920929e-07 5.2551509e-39
2.1554396 -1.0954888 1.1920929e-07 5.2551509e-39
2.1855342 -1.0947206 1.66893e-07 5.2551509e-39
2.1973739 -1.0930071 3.5762787e-07 5.2551509e-39
2.223031 -1.091954 1.1920929e-07 5.2551509e-39
0.80814761 -1.0849977 2.3841858e-07 5.2551509e-39
0.81454796 -1.0849972 1.1920929e-07 5.2551509e-39
0.82528752 -1.0849546 1.7881393e-07 5.2551509e-39
0.83625507 -1.0853019 1.9506975e-07 5.2551509e-39
0.84540957 -1.0851198 1.9073487e-07 5.2551509e-39
0.85464436 -1.0849351 1.5172091e-07 5.2551509e-39
0.86454529 -1.0851827 1.1920929e-07 5.2551509e-39
0.87456799 -1.084953 1.1920929e-07 5.2551509e-39
0.88402903 -1.0852463 2.503395e-07 5.2551509e-39
0.89390504 -1.0845582 1.1920929e-07 5.2551509e-39
0.90387285 -1.0853114 1.1920929e-07 5.2551509e-39
0.91393203 -1.0846171 1.5172091e-07 5.2551509e-39
0.92408419 -1.0853773 2.3841858e-07 5.2551509e-39
0.93433177 -1.084677 2.503395e-07 5.2551509e-39
0.94432962 -1.084976 1.5497207e-07 5.2551509e-39
0.95511764 -1.0847383 8.6697668e-08 5.2551509e-39
0.96565706 -1.0855134 1.9073487e-07 5.2551509e-39
0.9762975 -1.0848004 2.026558e-07 5.2551509e-39
0.98498356 -1.0854335 1.5326908e-07 5.2551509e-39
0.99425828 -1.084602 1.4305115e-07 5.2551509e-39
1.0048084 -1.0849087 1.5497207e-07 5.2551509e-39
1.0165639 -1.0851464 1.1920929e-07 5.2551509e-39
1.0254579 -1.0845622 1.7881393e-07 5.2551509e-39
1.0351769 -1.0849472 1.5497207e-07 5.2551509e-39
1.0461115 -1.0852627 1.1920929e-07 5.2551509e-39
1.0556196 -1.0851631 1.7881393e-07 5.2551509e-39
1.0652105 -1.0850619 1.66893e-07 5.2551509e-39
1.0748764 -1.0849606 2.3841858e-07 5.2551509e-39
1.0846272 -1.0848577 1.9073487e-07 5.2551509e-39
1.0944548 -1.0847548 2.3841858e-07 5.2551509e-39
1.1043698 -1.0851771 1.5894572e-07 5.2551509e-39
1.1140759 -1.0853188 1.7029899e-07 5.2551509e-39
1.1244457 -1.0849704 2.3841858e-07 5.2551509e-39
1.1343168 -1.0851126 1.8732888e-07 5.2551509e-39
1.144864 -1.0847602 1.9868214e-07 5.2551509e-39
1.1552012 -1.0857294 1.1920929e-07 5.2551509e-39
1.1656332 -1.0845464 1.1920929e-07 5.2551509e-39
1.1761494 -1.0855229 1.1920929e-07 5.2551509e-39
1.1846304 -1.0844603 1.1920929e-07 5.2551509e-39
1.1953177 -1.0848973 1.9868214e-07 5.2551509e-39
1.2060922 -1.0858873 2.3841858e-07 5.2551509e-39
1.2148517 -1.0852444 0.0013090869 5.2551509e-39
1.2235337 -1.0853896 1.7881393e-07 5.2551509e-39
1.2345634 -1.084726 7.9472862e-08 5.2551509e-39
1.2456841 -1.0851742 2.3841858e-07 5.2551509e-39
1.2546549 -1.0840769 2.3841858e-07 5.2551509e-39
1.2636899 -1.0846604 1.1920929e-07 5.2551509e-39
1.2750782 -1.0856789 1.9868214e-07 5.2551509e-39
1.2865628 -1.0844351 1.7881393e-07 5.2551509e-39
1.2958276 -1.0850272 1.7881393e-07 5.2551509e-39
1.30516 -1.0856234 1.9868214e-07 5.2551509e-39
1.3145608 -1.084505 1.7881393e-07 5.2551509e-39
1.3240303 -1.0851039 1.7881393e-07 5.2551509e-39
1.3330908 -1.0848095 1.9073487e-07 5.2551509e-39
1.3431791 -1.0845733 1.1920929e-07 5.2551509e-39
1.3528595 -1.085179 1.7881393e-07 5.2551509e-39
1.3656781 -1.0844452 2.0861626e-07 5.2551509e-39
1.377378 -1.0849506 1.1920929e-07 5.2551509e-39
1.3873142 -1.0855656 1.1920929e-07 5.2551509e-39
1.3978275 -1.0853292 1.1920929e-07 5.2551509e-39
1.4074119 -1.0850289 1.1920929e-07 5.2551509e-39
1.4150246 -1.0846001 2.3841858e-07 5.2551509e-39
1.4231976 -1.085098 2.3841858e-07 5.2551509e-39
1.4329654 -1.0847939 1.7881393e-07 5.2551509e-39
1.4428041 -1.084486 2.3841858e-07 5.2551509e-39
1.4532382 -1.0851147 1.9073487e-07 5.2551509e-39
1.4642811 -1.0848688 1.7881393e-07 5.2551509e-39
1.4748812 -1.0855037 2.3841858e-07 5.2551509e-39
1.4861003 -1.0852592 1.66893e-07 5.2551509e-39
1.4963304 -1.0849488 2.3841858e-07 5.2551509e-39
1.5066366 -1.0846341 1.9073487e-07 5.2551509e-39
1.5153726 -1.0851488 0 5.2551509e-39
1.524169 -1.0856669 1.1920929e-07 5.2551509e-39
1.5341285 -1.0843866 1.1920929e-07 5.2551509e-39
1.5452783 -1.085036 1.66893e-07 5.2551509e-39
1.5570816 -1.0847815 1.1920929e-07 5.2551509e-39
1.5655704 -1.086218 1.1920929e-07 5.2551509e-39
1.5735447 -1.0847893 1.9073487e-07 5.2551509e-39
1.5850108 -1.0854495 1.66893e-07 5.2551509e-39
1.5942475 -1.0859812 1.1920929e-07 5.2551509e-39
1.6023842 -1.0845374 1.1920929e-07 5.2551509e-39
1.6140842 -1.0852033 2.3841858e-07 5.2551509e-39
1.6264728 -1.0849432 1.7881393e-07 5.2551509e-39
1.6353838 -1.0844811 1.1920929e-07 5.2551509e-39
1.6437562 -1.0849519 2.3841858e-07 5.2551509e-39
1.6557966 -1.0856293 4.7683717e-08 5.2551509e-39
1.6654977 -1.0842204 1.1920929e-07 5.2551509e-39
1.6740448 -1.0846956 1.1920929e-07 5.2551509e-39
1.6838671 -1.0852414 3.5762787e-07 5.2551509e-39
1.6937621 -1.0857916 1.1920929e-07 5.2551509e-39
1.7049694 -1.0844337 2.3841858e-07 5.2551509e-39
1.7149998 -1.0849847 2.3841858e-07 5.2551509e-39
1.7251046 -1.0855396 4.7683717e-08 5.2551509e-39
1.733996 -1.0840276 2.3841858e-07 5.2551509e-39
1.74423 -1.084583 1.4305115e-07 5.2551509e-39
1.7571169 -1.0852821 1.1920929e-07 5.2551509e-39
1.7661999 -1.0857749 1.1920929e-07 5.2551509e-39
1.7769494 -1.0847648 0.00057223672 5.2551509e-39
1.7858557 -1.0848067 2.3841858e-07 5.2551509e-39
1.795119 -1.0853031 1.1920929e-07 5.2551509e-39
1.8057674 -1.0858736 2.3841858e-07 5.2551509e-39
1.8151522 -1.0843223 1.66893e-07 5.2551509e-39
1.8259405 -1.0848933 1.1920929e-07 5.2551509e-39
1.8368114 -1.0854686 1.66893e-07 5.2551509e-39
1.8463795 -1.0859749 1.1920929e-07 5.2551509e-39
1.8532526 -1.0842593 2.3841858e-07 5.2551509e-39
1.8629299 -1.084765 1.1920929e-07 5.2551509e-39
1.8740554 -1.0853462 1.1920929e-07 5.2551509e-39
1.8845648 -1.0848441 1.7881393e-07 5.2551509e-39
1.8951367 -1.0843406 2.3841858e-07 5.2551509e-39
1.9065001 -1.0849268 1.9073487e-07 5.2551509e-39
1.9165028 -1.0854428 2.3841858e-07 5.2551509e-39
1.9236892 -1.0836873 1.1920929e-07 5.2551509e-39
1.9345336 -1.0853051 1.7881393e-07 5.2551509e-39
1.9454436 -1.084795 3.5762787e-07 5.2551509e-39
1.9527613 -1.0851678 1.1920929e-07 5.2551509e-39
1.9630659 -1.0856924 1.66893e-07 5.2551509e-39
1.9749149 -1.0841355 1.1920929e-07 5.2551509e-39
1.9853618 -1.0846605 1.66893e-07 5.2551509e-39
1.9973751 -1.0852642 1.1920929e-07 5.2551509e-39
2.0049312 -1.085644 3.5762787e-07 5.2551509e-39
2.0125225 -1.0838401 0 5.2551509e-39
2.0239794 -1.0855035 1.7881393e-07 5.2551509e-39
2.0355082 -1.0849799 1.1920929e-07 5.2551509e-39
2.0432415 -1.0853634 1.1920929e-07 5.2551509e-39
2.054915 -1.0848368 1.7881393e-07 5.2551509e-39
2.0666611 -1.0843034 1.1920929e-07 5.2551509e-39
2.0745413 -1.0846889 1.1920929e-07 5.2551509e-39
2.0824587 -1.0850763 1.1920929e-07 5.2551509e-39
2.0936112 -1.085622 1.1920929e-07 5.2551509e-39
2.1064377 -1.0840015 2.3841858e-07 5.2551509e-39
2.1145072 -1.0866444 1.1920929e-07 5.2551509e-39
2.1226151 -1.0847821 2.3841858e-07 5.2551509e-39
2.1340365 -1.0853335 1.66893e-07 5.2551509e-39
2.1471741 -1.0836924 1.1920929e-07 5.2551509e-39
2.1554396 -1.088647 1.1920929e-07 5.2551509e-39
2.1848392 -1.0841173 0.00037447765 5.2551509e-39
2.2144365 -1.0845739 2.3841858e-07 5.2551509e-39
2.223031 -1.0849771 1.1920929e-07 5.2551509e-39
2.2316678 -1.0807198 1.1920929e-07 5.2551509e-39
2.2933433 -1.0835321 1.1920929e-07 5.2551509e-39
0.80814761 -1.0753115 2.3841858e-07 5.2551509e-39
0.81399018 -1.0748615 1.1920929e-07 5.2551509e-39
0.82484502 -1.075156 1.7881393e-07 5.2551509e-39
0.83568567 -1.0750604 1.9506975e-07 5.2551509e-39
0.84541017 -1.0752602 1.8423253e-07 5.2551509e-39
0.85493469 -1.0745394 1.1920929e-07 5.2551509e-39
0.86454469 -1.0752335 1.1920929e-07 5.2551509e-39
0.87394768 -1.0750035 1.1920929e-07 5.2551509e-39
0.88402957 -1.0752065 2.2758137e-07 5.2551509e-39
0.89423621 -1.0749274 1.1920929e-07 5.2551509e-39
0.90387231 -1.0751791 1.1920929e-07 5.2551509e-39
0.91393149 -1.0744381 1.66893e-07 5.2551509e-39
0.92408484 -1.075151 2.3841858e-07 5.2551509e-39
0.93467551 -1.0748663 2.2649765e-07 5.2551509e-39
0.94467556 -1.0751224 1.5497207e-07 5.2551509e-39
0.95511723 -1.074861 7.9472862e-08 5.2551509e-39
0.96565777 -1.0750934 2.0590696e-07 5.2551509e-39
0.97665435 -1.0748031 1.66893e-07 5.2551509e-39
0.9854967 -1.0749583 1.1920929e-07 5.2551509e-39
0.99425876 -1.0750537 1.5894572e-07 5.2551509e-39
1.0051734 -1.0747859 1.5497207e-07 5.2551509e-39
1.0158255 -1.0750482 1.1920929e-07 5.2551509e-39
1.0255582 -1.0746814 6.8001347e-05 5.2551509e-39
1.0344265 -1.074767 1.5497207e-07 5.2551509e-39
1.0464909 -1.0749546 1.3113022e-07 5.2551509e-39
1.0558926 -1.0751154 1.8732888e-07 5.2551509e-39
1.0652108 -1.0752145 1.5894572e-07 5.2551509e-39
1.0751537 -1.0748297 2.2138867e-07 5.2551509e-39
1.0846276 -1.0749284 1.9868214e-07 5.2551509e-39
1.0944548 -1.0753088 2.3841858e-07 5.2551509e-39
1.1043693 -1.0751646 1.4305115e-07 5.2551509e-39
1.1143626 -1.0750198 1.7881393e-07 5.2551509e-39
1.1244452 -1.0748732 1.0728836e-07 5.2551509e-39
1.1346086 -1.0747262 1.7881393e-07 5.2551509e-39
1.144864 -1.0751128 1.9868214e-07 5.2551509e-39
1.1549045 -1.0752151 1.1920929e-07 5.2551509e-39
1.1656333 -1.0748161 1.1920929e-07 5.2551509e-39
1.1761494 -1.0757507 1.1920929e-07 5.2551509e-39
1.1851733 -1.0749032 0.00064746058 5.2551509e-39
1.1953177 -1.0750484 1.9868214e-07 5.2551509e-39
1.2057829 -1.0751526 2.2138867e-07 5.2551509e-39
1.2147824 -1.0748863 1.1920929e-07 5.2551509e-39
1.2236874 -1.0752696 0.00045260554 5.2551509e-39
1.2345634 -1.0747205 7.9472862e-08 5.2551509e-39
1.2456841 -1.0751243 2.3841858e-07 5.2551509e-39
1.2542048 -1.074805 2.3841858e-07 5.2551509e-39
1.26369 -1.0745386 1.1920929e-07 5.2551509e-39
1.2750783 -1.0755116 1.8543668e-07 5.2551509e-39
1.2865626 -1.0742217 1.7881393e-07 5.2551509e-39
1.2958277 -1.0747769 5.9604645e-08 5.2551509e-39
1.30516 -1.0753361 1.7881393e-07 5.2551509e-39
1.3150325 -1.0750678 1.66893e-07 5.2551509e-39
1.3240303 -1.0747409 1.7881393e-07 5.2551509e-39
1.3335694 -1.0753061 1.7881393e-07 5.2551509e-39
1.3426967 -1.0749762 1.4305115e-07 5.2551509e-39
1.3528595 -1.074701 1.7881393e-07 5.2551509e-39
1.3644521 -1.0751604 1.937151e-07 5.2551509e-39
1.377378 -1.0743746 1.1920929e-07 5.2551509e-39
1.3873142 -1.07495 1.1920929e-07 5.2551509e-39
1.3973252 -1.0755297 1.1920929e-07 5.2551509e-39
1.4079181 -1.0752525 1.1920929e-07 5.2551509e-39
1.4150246 -1.0738739 2.3841858e-07 5.2551509e-39
1.4226857 -1.0752054 2.3841858e-07 5.2551509e-39
1.4334815 -1.0749245 1.66893e-07 5.2551509e-39
1.4438438 -1.0755141 2.3841858e-07 5.2551509e-39
1.4537622 -1.0751728 1.7881393e-07 5.2551509e-39
1.4637531 -1.0748271 1.9073487e-07 5.2551509e-39
1.4748815 -1.0745385 1.9868214e-07 5.2551509e-39
1.4851316 -1.0746158 0.00039297875 5.2551509e-39
1.4968708 -1.0748477 2.3841858e-07 5.2551509e-39
1.5075736 -1.0749741 0.0010987591 5.2551509e-39
1.5153726 -1.0740217 0 5.2551509e-39
1.5236179 -1.0754036 1.1920929e-07 5.2551509e-39
1.5352395 -1.0751126 1.1920929e-07 5.2551509e-39
1.5463982 -1.0757254 1.9073487e-07 5.2551509e-39
1.5565172 -1.0743992 1.1920929e-07 5.2551509e-39
1.5655704 -1.0748905 1.1920929e-07 5.2551509e-39
1.5746872 -1.0753851 1.66893e-07 5.2551509e-39
1.5855865 -1.0750268 1.7881393e-07 5.2551509e-39
1.5942475 -1.0745391 1.1920929e-07 5.2551509e-39
1.60355 -1.0750377 1.1920929e-07 5.2551509e-39
1.6152595 -1.075665 2.3841858e-07 5.2551509e-39
1.6258802 -1.0743062 1.9073487e-07 5.2551509e-39
1.635384 -1.0748091 1.1920929e-07 5.2551509e-39
1.6449556 -1.0753155 2.3841858e-07 5.2551509e-39
1.6570063 -1.0759534 7.1525577e-08 5.2551509e-39
1.6654977 -1.0744482 1.1920929e-07 5.2551509e-39
1.6752695 -1.0749588 1.1920929e-07 5.2551509e-39
1.6838673 -1.0754081 2.3841858e-07 5.2551509e-39
1.6931419 -1.0749053 1.1920929e-07 5.2551509e-39
1.70622 -1.0745946 2.3841858e-07 5.2551509e-39
1.7149999 -1.0750475 2.3841858e-07 5.2551509e-39
1.7238382 -1.0755036 7.1525577e-08 5.2551509e-39
1.7339962 -1.0740275 2.3841858e-07 5.2551509e-39
1.7429476 -1.0744834 9.5367433e-08 5.2551509e-39
1.7558234 -1.075139 1.1920929e-07 5.2551509e-39
1.7657007 -1.0754484 0.00027944698 5.2551509e-39
1.7759997 -1.0751514 1.7881393e-07 5.2551509e-39
1.7858557 -1.0746337 2.3841858e-07 5.2551509e-39
1.7964464 -1.075166 1.1920929e-07 5.2551509e-39
1.8057673 -1.0756345 2.3841858e-07 5.2551509e-39
1.8164971 -1.0741189 1.9073487e-07 5.2551509e-39
1.8259404 -1.0745871 1.1920929e-07 5.2551509e-39
1.8354489 -1.0750587 1.9073487e-07 5.2551509e-39
1.8463796 -1.0756007 1.1920929e-07 5.2551509e-39
1.8532526 -1.0759416 2.3841858e-07 5.2551509e-39
1.8643167 -1.0744034 1.1920929e-07 5.2551509e-39
1.8740554 -1.0748799 1.1920929e-07 5.2551509e-39
1.8838621 -1.0753598 1.9073487e-07 5.2551509e-39
1.8951367 -1.0738039 2.3841858e-07 5.2551509e-39
1.9057878 -1.0753741 1.7881393e-07 5.2551509e-39
1.9165028 -1.0748352 2.3841858e-07 5.2551509e-39
1.9236892 -1.075182 1.1920929e-07 5.2551509e-39
1.9338086 -1.0756704 1.66893e-07 5.2551509e-39
1.9454437 -1.0740912 1.1920929e-07 5.2551509e-39
1.9527613 -1.0744394 1.1920929e-07 5.2551509e-39
1.9645427 -1.075 1.1920929e-07 5.2551509e-39
1.9749149 -1.0754938 1.1920929e-07 5.2551509e-39
1.9861107 -1.0749439 1.7881393e-07 5.2551509e-39
1.9973752 -1.0743873 1.1920929e-07 5.2551509e-39
2.0049312 -1.074742 3.5762787e-07 5.2551509e-39
2.0125225 -1.0750983 0 5.2551509e-39
2.0232131 -1.0755999 1.9073487e-07 5.2551509e-39
2.0355082 -1.073976 1.1920929e-07 5.2551509e-39
2.0432415 -1.0765398 1.1920929e-07 5.2551509e-39
2.0556953 -1.0749102 1.66893e-07 5.2551509e-39
2.0666611 -1.0754175 1.1920929e-07 5.2551509e-39
2.0745413 -1.0735552 1.1920929e-07 5.2551509e-39
2.0824587 -1.0761483 1.1920929e-07 5.2551509e-39
2.0952096 -1.0744976 1.1920929e-07 5.2551509e-39
2.1064377 -1.0750096 2.3841858e-07 5.2551509e-39
2.1145072 -1.0753776 1.1920929e-07 5.2551509e-39
2.1226151 -1.0757473 2.3841858e-07 5.2551509e-39
2.1307621 -1.0738547 1.1920929e-07 5.2551509e-39
2.172091 -1.0734199 2.3841858e-07 5.2551509e-39
2.1846914 -1.0751263 1.7881393e-07 5.2551509e-39
2.2144365 -1.0752944 2.3841858e-07 5.2551509e-39
2.2224357 -1.0766807 0.0011968857 5.2551509e-39
2.2316678 -1.0737259 1.1920929e-07 5.2551509e-39
0.80814761 -1.0656252 2.3841858e-07 5.2551509e-39
0.81426948 -1.0646633 1.1920929e-07 5.2551509e-39
0.8252877 -1.0654224 1.7029899e-07 5.2551509e-39
0.83597082 -1.0647562 1.6255812e-07 5.2551509e-39
0.84540951 -1.0654001 1.5497207e-07 5.2551509e-39
0.8549341 -1.064635 1.1920929e-07 5.2551509e-39
0.86454529 -1.0652846 1.1920929e-07 5.2551509e-39
0.87471938 -1.0648731 0.00020270655 5.2551509e-39
0.88402903 -1.0651667 2.503395e-07 5.2551509e-39
0.89360464 -1.0648898 1.1920929e-07 5.2551509e-39
0.90387291 -1.0650468 1.1920929e-07 5.2551509e-39
0.91426885 -1.0647166 1.5497207e-07 5.2551509e-39
0.92408431 -1.0649245 2.3841858e-07 5.2551509e-39
0.93398923 -1.0651329 2.3841858e-07 5.2551509e-39
0.94467634 -1.0648001 1.408837e-07 5.2551509e-39
0.95499325 -1.0653068 0.00067951815 5.2551509e-39
0.96565706 -1.0646732 1.9073487e-07 5.2551509e-39
0.97594154 -1.0648843 1.5497207e-07 5.2551509e-39
0.98524016 -1.0651797 1.1920929e-07 5.2551509e-39
0.99425912 -1.0650028 1.7339534e-07 5.2551509e-39
1.0051738 -1.0651917 1.5894572e-07 5.2551509e-39
1.0161941 -1.064875 1.1920929e-07 5.2551509e-39
1.025192 -1.065441 1.8732888e-07 5.2551509e-39
1.0348015 -1.0650225 1.5894572e-07 5.2551509e-39
1.0457332 -1.0647278 1.0728836e-07 5.2551509e-39
1.0556196 -1.0650316 1.7881393e-07 5.2551509e-39
1.0655962 -1.0653381 1.5497207e-07 5.2551509e-39
1.0748764 -1.0646626 2.3841858e-07 5.2551509e-39
1.0850195 -1.0649698 2.026558e-07 5.2551509e-39
1.0947368 -1.0650922 2.0435878e-07 5.2551509e-39
1.1043698 -1.0651519 1.1920929e-07 5.2551509e-39
1.1146494 -1.0647172 1.8732888e-07 5.2551509e-39
1.1244458 -1.0647759 1.1920929e-07 5.2551509e-39
1.1346086 -1.0651197 1.7881393e-07 5.2551509e-39
1.1448635 -1.0649294 2.1457672e-07 5.2551509e-39
1.1552012 -1.0647388 1.1920929e-07 5.2551509e-39
1.1656333 -1.0650858 1.1920929e-07 5.2551509e-39
1.1758474 -1.0651469 1.1920929e-07 5.2551509e-39
1.1846304 -1.0648479 1.1920929e-07 5.2551509e-39
1.1953177 -1.0651996 1.9868214e-07 5.2551509e-39
1.2060921 -1.0644563 2.3841858e-07 5.2551509e-39
1.2147825 -1.0649598 1.1920929e-07 5.2551509e-39
1.2235337 -1.0654665 1.7881393e-07 5.2551509e-39
1.2345634 -1.0647149 7.9472862e-08 5.2551509e-39
1.2456843 -1.0650743 2.3841858e-07 5.2551509e-39
1.2546549 -1.0655879 2.1855037e-07 5.2551509e-39
1.26369 -1.0644168 1.1920929e-07 5.2551509e-39
1.2750784 -1.0653442 1.5894572e-07 5.2551509e-39
1.2861011 -1.0648346 1.66893e-07 5.2551509e-39
1.2958277 -1.0645267 5.9604645e-08 5.2551509e-39
1.30516 -1.0650486 1.7881393e-07 5.2551509e-39
1.3145608 -1.065574 1.7881393e-07 5.2551509e-39
1.3245056 -1.0652672 1.66893e-07 5.2551509e-39
1.3335695 -1.064905 1.7881393e-07 5.2551509e-39
1.3431789 -1.065436 1.1920929e-07 5.2551509e-39
1.3523737 -1.06507 1.66893e-07 5.2551509e-39
1.3650655 -1.0651823 1.9868214e-07 5.2551509e-39
1.376883 -1.064654 1.1920929e-07 5.2551509e-39
1.3873142 -1.0643343 1.1920929e-07 5.2551509e-39
1.3973252 -1.0648741 1.1920929e-07 5.2551509e-39
1.4074119 -1.0654179 1.1920929e-07 5.2551509e-39
1.4150246 -1.0649352 2.3841858e-07 5.2551509e-39
1.4226856 -1.0644486 2.3841858e-07 5.2551509e-39
1.4329654 -1.0649961 1.7881393e-07 5.2551509e-39
1.443324 -1.0655476 2.3841858e-07 5.2551509e-39
1.4542862 -1.0652254 1.1920929e-07 5.2551509e-39
1.464281 -1.064845 1.7881393e-07 5.2551509e-39
1.4743494 -1.0644598 1.66893e-07 5.2551509e-39
1.4850279 -1.0650179 1.1920929e-07 5.2551509e-39
1.4963304 -1.0646868 2.3841858e-07 5.2551509e-39
1.5071813 -1.06525 1.7881393e-07 5.2551509e-39
1.5153726 -1.064749 0 5.2551509e-39
1.5230668 -1.0651459 1.1920929e-07 5.2551509e-39
1.5346841 -1.0648106 1.1920929e-07 5.2551509e-39
1.5458384 -1.0653824 1.7881393e-07 5.2551509e-39
1.557646 -1.0650473 1.1920929e-07 5.2551509e-39
1.5655704 -1.0654508 1.1920929e-07 5.2551509e-39
1.5741159 -1.0649382 1.7881393e-07 5.2551509e-39
1.5861623 -1.0645977 1.9073487e-07 5.2551509e-39
1.5942476 -1.0650041 1.1920929e-07 5.2551509e-39
1.6023842 -1.065413 1.1920929e-07 5.2551509e-39
1.6146721 -1.0650692 2.3841858e-07 5.2551509e-39
1.6270653 -1.0647244 1.66893e-07 5.2551509e-39
1.6353838 -1.065137 1.1920929e-07 5.2551509e-39
1.6437562 -1.0655522 2.3841858e-07 5.2551509e-39
1.6564013 -1.0652043 1.9868216e-08 5.2551509e-39
1.6654977 -1.0646759 1.1920929e-07 5.2551509e-39
1.6740448 -1.0650942 1.1920929e-07 5.2551509e-39
1.6838675 -1.0655748 1.1920929e-07 5.2551509e-39
1.6931421 -1.0650411 1.1920929e-07 5.2551509e-39
1.7049696 -1.0646265 2.3841858e-07 5.2551509e-39
1.7149998 -1.0651106 2.3841858e-07 5.2551509e-39
1.7251047 -1.0655982 4.7683717e-08 5.2551509e-39
1.733996 -1.0640272 2.3841858e-07 5.2551509e-39
1.74423 -1.0645144 1.4305115e-07 5.2551509e-39
1.7571167 -1.0651277 1.1920929e-07 5.2551509e-39
1.7661999 -1.06556 1.1920929e-07 5.2551509e-39
1.7759997 -1.0650114 1.7881393e-07 5.2551509e-39
1.7858557 -1.064461 2.3841858e-07 5.2551509e-39
1.7951189 -1.0648957 1.1920929e-07 5.2551509e-39
1.8057674 -1.0653954 2.3841858e-07 5.2551509e-39
1.8158245 -1.064839 1.7881393e-07 5.2551509e-39
1.8259405 -1.0642809 1.1920929e-07 5.2551509e-39
1.8368114 -1.0647837 1.66893e-07 5.2551509e-39
1.8463795 -1.0652263 1.1920929e-07 5.2551509e-39
1.8532528 -1.0655442 2.3841858e-07 5.2551509e-39
1.8636234 -1.0649798 1.1920929e-07 5.2551509e-39
1.8740554 -1.0644135 1.1920929e-07 5.2551509e-39
1.8852675 -1.0649248 1.66893e-07 5.2551509e-39
1.8951367 -1.0653746 2.3841858e-07 5.2551509e-39
1.9050757 -1.065828 1.66893e-07 5.2551509e-39
1.916503 -1.0642276 1.1920929e-07 5.2551509e-39
1.9236892 -1.0645504 1.1920929e-07 5.2551509e-39
1.9352589 -1.0650703 1.1920929e-07 5.2551509e-39
1.9454437 -1.0655279 1.1920929e-07 5.2551509e-39
1.9527613 -1.063711 1.1920929e-07 5.2551509e-39
1.9638044 -1.0652751 1.1920929e-07 5.2551509e-39
1.9749149 -1.0646917 1.1920929e-07 5.2551509e-39
1.9868593 -1.0652204 1.9073487e-07 5.2551509e-39
1.9973752 -1.065686 1.1920929e-07 5.2551509e-39
2.0049312 -1.0638399 3.5762787e-07 5.2551509e-39
2.0125225 -1.0663565 0 5.2551509e-39
2.0247459 -1.0647038 1.66893e-07 5.2551509e-39
2.0355082 -1.0651731 1.1920929e-07 5.2551509e-39
2.0432415 -1.0655103 1.1920929e-07 5.2551509e-39
2.054915 -1.0649111 1.7881393e-07 5.2551509e-39
2.0666611 -1.0665314 1.1920929e-07 5.2551509e-39
2.0745413 -1.0646483 1.1920929e-07 5.2551509e-39
2.0824587 -1.0649883 1.1920929e-07 5.2551509e-39
2.0944104 -1.0643802 1.1920929e-07 5.2551509e-39
2.1064377 -1.0660177 2.3841858e-07 5.2551509e-39
2.1145072 -1.064111 1.1920929e-07 5.2551509e-39
2.1226151 -1.0667124 2.3841858e-07 5.2551509e-39
2.1348553 -1.0638362 1.7881393e-07 5.2551509e-39
2.1554396 -1.0612799 1.1920929e-07 5.2551509e-39
2.1637452 -1.0661922 1.1920929e-07 5.2551509e-39
2.172091 -1.0642532 2.3841858e-07 5.2551509e-39
2.1804776 -1.0646023 2.3841858e-07 5.2551509e-39
2.2144365 -1.0660149 2.3841858e-07 5.2551509e-39
2.223031 -1.0663726 1.1920929e-07 5.2551509e-39
2.2316678 -1.0667318 1.1920929e-07 5.2551509e-39
0.80814767 -1.0545553 1.4901161e-07 5.2551509e-39
0.81426889 -1.0549484 1.1920929e-07 5.2551509e-39
0.82516986 -1.0552759 1.4305115e-07 5.2551509e-39
0.83597022 -1.0549402 1.5497207e-07 5.2551509e-39
0.84541017 -1.0555402 1.6255812e-07 5.2551509e-39
0.85493469 -1.054731 1.1920929e-07 5.2551509e-39
0.86454475 -1.0553354 1.1920929e-07 5.2551509e-39
0.87424266 -1.0545177 1.1920929e-07 5.2551509e-39
0.88402963 -1.0551269 2.2758137e-07 5.2551509e-39
0.89423627 -1.0547528 1.1920929e-07 5.2551509e-39
0.90387219 -1.0549145 1.1920929e-07 5.2551509e-39
0.91359508 -1.0550762 1.5497207e-07 5.2551509e-39
0.92417842 -1.0548373 0.00011744163 5.2551509e-39
0.93433189 -1.0553222 1.4305115e-07 5.2551509e-39
0.94467556 -1.0544777 1.1920929e-07 5.2551509e-39
0.95511758 -1.0551066 8.6697668e-08 5.2551509e-39
0.96565747 -1.0552453 1.9868214e-07 5.2551509e-39
0.9762975 -1.0548869 1.66893e-07 5.2551509e-39
0.9849835 -1.0554044 1.1920929e-07 5.2551509e-39
0.99425876 -1.0549519 1.5894572e-07 5.2551509e-39
1.0051742 -1.0550923 1.6255812e-07 5.2551509e-39
1.0161945 -1.0552343 1.1920929e-07 5.2551509e-39
1.0257237 -1.0547744 1.7029899e-07 5.2551509e-39
1.0348011 -1.0553032 1.66893e-07 5.2551509e-39
1.0461117 -1.0549339 1.1920929e-07 5.2551509e-39
1.0553468 -1.0549515 1.7029899e-07 5.2551509e-39
1.0648259 -1.0550301 1.4305115e-07 5.2551509e-39
1.0748764 -1.0552946 2.3841858e-07 5.2551509e-39
1.0842364 -1.0545763 1.0728836e-07 5.2551509e-39
1.0944549 -1.0548412 1.7881393e-07 5.2551509e-39
1.1047682 -1.0551083 1.1920929e-07 5.2551509e-39
1.1143626 -1.0543799 1.7881393e-07 5.2551509e-39
1.1244457 -1.0552104 1.1920929e-07 5.2551509e-39
1.1349002 -1.0547284 1.7029899e-07 5.2551509e-39
1.144864 -1.0547462 1.9868214e-07 5.2551509e-39
1.1552012 -1.05505 1.1920929e-07 5.2551509e-39
1.1656332 -1.0553554 1.1920929e-07 5.2551509e-39
1.1761494 -1.0545788 1.1920929e-07 5.2551509e-39
1.1846304 -1.0550418 1.1920929e-07 5.2551509e-39
1.1953177 -1.0553508 1.9868214e-07 5.2551509e-39
1.2060921 -1.0545645 2.3841858e-07 5.2551509e-39
1.2147825 -1.0550332 1.1920929e-07 5.2551509e-39
1.2235337 -1.0555049 1.7881393e-07 5.2551509e-39
1.2345634 -1.0547094 7.9472862e-08 5.2551509e-39
1.2456843 -1.0550243 2.3841858e-07 5.2551509e-39
1.2546549 -1.0555021 1.7881393e-07 5.2551509e-39
1.2636899 -1.0542947 1.1920929e-07 5.2551509e-39
1.2750783 -1.0551769 1.5894572e-07 5.2551509e-39
1.2869797 -1.0555354 0.00092334766 5.2551509e-39
1.2958277 -1.0542765 5.9604645e-08 5.2551509e-39
1.3051602 -1.0547609 1.7881393e-07 5.2551509e-39
1.3145608 -1.0552489 1.7881393e-07 5.2551509e-39
1.3240303 -1.0557407 1.7881393e-07 5.2551509e-39
1.3335695 -1.054504 1.7881393e-07 5.2551509e-39
1.3431791 -1.0549966 1.1920929e-07 5.2551509e-39
1.3528595 -1.0554928 1.7881393e-07 5.2551509e-39
1.3650663 -1.0552404 1.937151e-07 5.2551509e-39
1.377378 -1.0549868 1.1920929e-07 5.2551509e-39
1.3868154 -1.054579 1.4305115e-07 5.2551509e-39
1.3968227 -1.055082 1.1920929e-07 5.2551509e-39
1.4074119 -1.054722 1.1920929e-07 5.2551509e-39
1.4150246 -1.0559968 2.3841858e-07 5.2551509e-39
1.4221736 -1.0545636 2.3841858e-07 5.2551509e-39
1.4324496 -1.0550731 1.1920929e-07 5.2551509e-39
1.443324 -1.0547081 2.3841858e-07 5.2551509e-39
1.4537622 -1.0552225 1.1920929e-07 5.2551509e-39
1.4648091 -1.054857 1.66893e-07 5.2551509e-39
1.4754136 -1.0553759 1.9073487e-07 5.2551509e-39
1.4855641 -1.0549561 1.1920929e-07 5.2551509e-39
1.49579 -1.0545313 2.3841858e-07 5.2551509e-39
1.5066366 -1.0550549 1.9073487e-07 5.2551509e-39
1.5153726 -1.0554765 0 5.2551509e-39
1.5236179 -1.0549452 1.1920929e-07 5.2551509e-39
1.5341285 -1.0545145 1.1920929e-07 5.2551509e-39
1.5452784 -1.0550454 1.66893e-07 5.2551509e-39
1.5570816 -1.0546651 1.1920929e-07 5.2551509e-39
1.5655704 -1.0560111 1.1920929e-07 5.2551509e-39
1.5735447 -1.0544974 1.9073487e-07 5.2551509e-39
1.5850108 -1.0550354 1.66893e-07 5.2551509e-39
1.5942475 -1.0554689 1.1920929e-07 5.2551509e-39
