# .PCD v0.7 - Point Cloud Data file format
VERSION 0.7
FIELDS x y z rgb
SIZE 4 4 4 4
TYPE F F F F
COUNT 1 1 1 1
WIDTH 1009
HEIGHT 1
VIEWPOINT 0 0 0 1 0 0 0
POINTS 1009
DATA ascii
0.59765834 0.25704974 0.64458126 8.3064699e-39
0.602018 0.25213018 0.64504582 8.3064699e-39
0.58771759 0.26743326 0.64505571 8.3064699e-39
0.59257925 0.26282069 0.64471948 8.3064727e-39
0.57796943 0.27755466 0.6450659 1.0053218e-38
0.58262682 0.27268857 0.64514101 8.8582284e-39
0.56841397 0.28783748 0.64495152 9.3177842e-39
0.57293004 0.28287348 0.64473593 9.0419064e-39
0.58146763 0.2877667 0.64178777 8.581989e-39
0.55909997 0.29870132 0.64448738 9.5936592e-39
0.56313163 0.29381058 0.64510095 8.6741874e-39
0.57307714 0.29108649 0.6444881 9.7777002e-39
0.55407143 0.30505463 0.64505076 8.7660271e-39
0.54686075 0.31529653 0.64529854 8.3064685e-39
0.55019635 0.31057355 0.64366478 8.3064699e-39
0.54395491 0.32430008 0.6450153 5.346559e-39
0.5484966 0.33071741 0.64373904 3.6805945e-39
0.54826456 -0.33295462 0.65448856 2.9521575e-39
0.54753196 -0.32522118 0.65320462 3.4131497e-39
0.55035675 -0.32522106 0.65555006 3.13619e-39
0.54906964 -0.31536794 0.65414447 3.3205883e-39
0.55064321 -0.31486595 0.65372378 3.2287514e-39
0.54978019 -0.30968219 0.65898705 2.9517932e-39
0.55166918 -0.30469257 0.65451574 2.951796e-39
0.5538438 -0.29473302 0.65534228 2.9517932e-39
0.55507392 -0.28515539 0.65497571 4.4269064e-39
0.56492913 -0.28177392 0.65363735 6.541194e-39
0.55645359 -0.27482852 0.65506405 1.0509583e-38
0.55769485 -0.26466995 0.65502715 9.6794565e-39
0.55931288 -0.2556203 0.65475482 9.0337284e-39
0.56017703 -0.25138867 0.65702057 8.5731118e-39
0.55987155 -0.2485541 0.65076226 1.115495e-38
0.56091619 -0.24474904 0.65559226 8.5720286e-39
0.56216222 -0.23470996 0.654953 8.8489742e-39
0.56306607 -0.22524342 0.65478271 9.5865406e-39
0.56392491 -0.21500722 0.65476662 1.0970558e-38
0.56509286 -0.20532875 0.65554559 1.1524457e-38
0.5669986 -0.19504836 0.65493792 4.4265477e-39
0.56915057 -0.18791869 0.65530676 2.9517932e-39
0.57090163 -0.18292914 0.65521443 2.9517932e-39
0.57369614 -0.17525803 0.65476722 2.9517932e-39
0.57719815 -0.16771749 0.65579927 2.9517932e-39
0.58312273 -0.16398844 0.6583336 2.9517946e-39
0.58840185 -0.070459381 0.65228891 1.1430459e-38
0.57955992 -0.061327532 0.65560532 6.5203202e-39
0.58382446 -0.065612599 0.65359688 9.5588145e-39
0.57446575 -0.055339184 0.65518159 6.5203202e-39
0.56811047 -0.044265829 0.65452451 6.3366492e-39
0.57065082 -0.049283665 0.65518934 5.6938008e-39
0.56295288 -0.0350229 0.65467143 8.6325366e-39
0.55682814 -0.024910454 0.65523207 8.8162076e-39
0.54941094 -0.011810877 0.65549392 8.8162076e-39
0.55211383 -0.01658853 0.65476894 8.7243721e-39
0.545816 -0.00530332 0.65505022 8.7243721e-39
0.53883052 0.0074350471 0.65529931 8.8162076e-39
0.54149818 0.0026482684 0.65500748 8.7243721e-39
0.53470433 0.014896403 0.6550675 8.8162076e-39
0.52801406 0.02685852 0.65493429 8.7243721e-39
0.53064489 0.022112966 0.6552462 8.7243721e-39
0.52380276 0.034569066 0.65522522 8.7243721e-39
0.52457178 0.043883312 0.65515679 8.7243721e-39
0.53137082 0.04976641 0.65499347 8.8162076e-39
0.53619522 0.053865764 0.6549511 8.8162076e-39
0.54251498 0.058943901 0.65518409 8.7243721e-39
0.54796767 0.062023185 0.65612209 8.7243721e-39
0.55391151 0.064895861 0.65342587 8.7243721e-39
0.56537896 0.068634808 0.65146142 8.9109242e-39
0.56979293 0.070461825 0.65098715 8.8165678e-39
0.57274485 0.073519692 0.65316522 8.7247323e-39
0.64565372 0.10903193 0.65505147 1.0879806e-38
0.65103847 0.10675632 0.65371633 1.0787969e-38
0.63576442 0.11587968 0.65496671 8.6663892e-39
0.64143336 0.11122493 0.65552467 1.1616649e-38
0.62694687 0.12577721 0.65500474 1.1981662e-39
0.63191062 0.12216847 0.65611255 4.240999e-39
0.62237382 0.13470678 0.65507168 1.3825547e-39
0.61980712 0.14723442 0.65541393 1.097128e-38
0.62031072 0.14242929 0.6554395 2.489282e-39
0.61973041 0.150576 0.65603745 1.1801041e-38
0.62352008 0.15522569 0.655469 1.244641e-38
0.45807296 0.19951227 0.65588772 8.116472e-39
0.46511275 0.19952163 0.65401053 6.822478e-39
0.44912884 0.2088421 0.65510035 6.4584011e-39
0.45298931 0.2038257 0.65602392 6.7349851e-39
0.44490716 0.21523593 0.65493101 6.1821757e-39
0.4370763 0.22615688 0.65500104 6.2743699e-39
0.44070536 0.22120015 0.6553672 6.1821757e-39
0.42946655 0.23876943 0.65189332 6.1821757e-39
0.43180424 0.23441967 0.65498853 6.7349851e-39
0.61718976 0.23849235 0.65440935 9.2294898e-39
0.62250453 0.2363549 0.65573448 8.7674424e-39
0.42850506 0.24475251 0.65458894 6.3662054e-39
0.43032932 0.24062297 0.65458179 6.1821757e-39
0.60708058 0.24693143 0.65488893 8.3068286e-39
0.61313015 0.24189906 0.65554541 9.1372956e-39
0.42853105 0.25034529 0.65493572 5.9974201e-39
0.43227363 0.25342149 0.65597421 5.9016035e-39
0.59726316 0.25740466 0.65464735 8.3064685e-39
0.60216278 0.25228688 0.65495288 8.3064699e-39
0.58737141 0.2674062 0.65574807 8.4901493e-39
0.5922243 0.26249689 0.65475827 8.3064685e-39
0.57768756 0.27755603 0.65491688 9.1337433e-39
0.58244634 0.27259225 0.65488952 9.9613782e-39
0.56797767 0.28786287 0.65496451 8.3983082e-39
0.5727948 0.28261495 0.65519315 8.3064685e-39
0.55890614 0.29883122 0.65471715 9.9617383e-39
0.56306469 0.29368916 0.65512741 9.1337447e-39
0.55408245 0.30500698 0.65518671 8.7660285e-39
0.54624736 0.31510875 0.65526569 7.7522297e-39
0.55020273 0.3101145 0.65308869 8.3064699e-39
0.54556918 0.32510656 0.65494454 3.6820392e-39
0.55047625 0.32042468 0.65623957 8.7660285e-39
0.54890382 0.33115223 0.6548481 3.6805945e-39
0.548181 -0.33242425 0.66508889 2.2142113e-39
0.54833072 -0.32539466 0.66548663 2.8599563e-39
0.54894423 -0.31472921 0.66586035 2.9517932e-39
0.55026841 -0.31047761 0.66885775 2.9517932e-39
0.53898406 -0.30997208 0.66962242 1.1708845e-38
0.54986763 -0.30952108 0.66283321 2.9517932e-39
0.55178434 -0.30462205 0.66514659 2.9517932e-39
0.55480564 -0.29488385 0.66508985 3.1361816e-39
0.55643147 -0.28475299 0.66480023 8.7593359e-39
0.5577392 -0.27508509 0.66504258 9.0326438e-39
0.5590865 -0.26528242 0.66475779 6.7245062e-39
0.56016028 -0.26096588 0.6688776 6.0755299e-39
0.55976331 -0.25869623 0.66219372 6.541194e-39
0.56108576 -0.25414717 0.6652261 6.0769704e-39
0.56214494 -0.24493705 0.66516143 5.8914988e-39
0.56341976 -0.23529142 0.66505593 5.9847748e-39
0.56477159 -0.2247355 0.66504258 6.5393933e-39
0.5656243 -0.21475659 0.66473103 7.3720392e-39
0.56652409 -0.20447706 0.6652807 1.1247147e-38
0.56817281 -0.19505069 0.66462284 6.0860508e-39
0.56969172 -0.18866684 0.66630673 2.9517932e-39
0.57110363 -0.18405037 0.66502565 2.9517932e-39
0.57424545 -0.1747369 0.66510582 2.9517932e-39
0.57810849 -0.16770728 0.66584015 2.9517932e-39
0.58332193 -0.16408111 0.66612345 2.9521547e-39
0.59221071 -0.16426471 0.66464049 3.2287486e-39
0.58779645 -0.071286812 0.66360509 1.2948805e-38
0.59088653 -0.071514532 0.66367233 1.2948805e-38
0.57772475 -0.063077785 0.66740137 6.6121557e-39
0.58169603 -0.068323486 0.66820675 9.6463298e-39
0.57286048 -0.054188028 0.665654 6.4284847e-39
0.56757259 -0.044428214 0.66525203 7.5305107e-39
0.57019305 -0.048939511 0.66107702 7.8060172e-39
0.55962193 -0.030358825 0.66565609 8.8162076e-39
0.56243771 -0.035280466 0.66479874 8.8162076e-39
0.55646795 -0.024697673 0.66504455 8.8162076e-39
0.54898947 -0.011448984 0.66457015 8.7243721e-39
0.55205041 -0.0160891 0.66487986 8.4499545e-39
0.54568177 -0.0053042057 0.66510653 8.7243721e-39
0.53901011 0.0069499798 0.66522032 8.8162076e-39
0.54164386 0.0021457265 0.66470796 8.7243721e-39
0.53462923 0.014701646 0.66502869 8.7243721e-39
0.52805471 0.026291648 0.66510594 8.7243721e-39
0.53071803 0.021528173 0.66441298 8.8162076e-39
0.51458663 0.036803402 0.66677833 1.0598173e-38
0.52411181 0.035504077 0.66572249 8.8162076e-39
0.51609218 0.046164773 0.66619569 9.4695e-39
0.52368021 0.043895464 0.66529918 8.7243721e-39
0.53053713 0.049577147 0.66281855 8.8162076e-39
0.53631794 0.054569229 0.66431898 8.7243721e-39
0.54179561 0.058699749 0.66450346 8.8162076e-39
0.54743797 0.061898272 0.66477555 8.7243721e-39
0.55426049 0.065683119 0.66467851 8.8162076e-39
0.56200653 0.069178455 0.66297144 8.8162076e-39
0.5669902 0.071452431 0.66521889 8.8162076e-39
0.57188016 0.073423095 0.66152787 8.7243721e-39
0.64726424 0.10830352 0.6654197 1.0972e-38
0.63502115 0.11624633 0.66525757 8.6653102e-39
0.64138466 0.11157929 0.66529602 1.1524455e-38
0.62666363 0.12556444 0.66519076 2.211228e-39
0.63080901 0.12030089 0.66261816 0
0.62172753 0.13554998 0.66521543 3.0384663e-39
0.61978787 0.14764985 0.66382998 9.7727368e-39
0.62019044 0.1441592 0.66712284 6.0795124e-39
0.61953819 0.151227 0.66334069 1.1801041e-38
0.62253624 0.15442508 0.66546369 1.1985432e-38
0.45923066 0.19954398 0.66490936 8.3001374e-39
0.46417561 0.19897695 0.66806781 8.2986899e-39
0.44915092 0.20870493 0.66533053 7.5640213e-39
0.45367649 0.203676 0.66508108 6.6427909e-39
0.44485974 0.21510051 0.66498435 5.4453393e-39
0.43709597 0.22606701 0.66513288 3.8787465e-39
0.44077802 0.2210362 0.66564971 2.4947443e-39
0.42937949 0.23855998 0.66570961 7.7480525e-39
0.43175656 0.23357321 0.66533345 7.195243e-39
0.61741787 0.239274 0.66598547 8.3064685e-39
0.62234235 0.23666368 0.66566467 8.4905052e-39
0.42881721 0.24471141 0.66569775 6.4584011e-39
0.43044901 0.24869558 0.66543972 5.6271928e-39
0.60716623 0.24736805 0.66520554 8.3064685e-39
0.61289483 0.24249564 0.66569626 8.3064699e-39
0.43307745 0.25388625 0.6640684 5.2558726e-39
0.59734917 0.25721219 0.66481948 8.3064685e-39
0.60216445 0.25217587 0.66510004 8.3064685e-39
0.58718956 0.26751721 0.66535783 9.1337433e-39
0.59230983 0.26281264 0.66498166 8.3983138e-39
0.57758915 0.27763775 0.66485566 9.0419064e-39
0.58234191 0.27258322 0.66514254 8.5823491e-39
0.55839574 0.28743345 0.66437656 9.5893741e-39
0.56793815 0.28813145 0.66455346 8.3064713e-39
0.57254899 0.28311086 0.66512287 8.3064685e-39
0.55856287 0.29852915 0.66462183 9.2259459e-39
0.56295246 0.29370949 0.66479558 9.2259445e-39
0.54983777 0.30959672 0.6694299 8.3064685e-39
0.55398917 0.30472618 0.66510004 8.3064699e-39
0.54603893 0.3146762 0.6651336 7.9369783e-39
0.54347908 0.32451779 0.6668731 4.0508175e-39
0.54430723 0.33057868 0.66898483 5.520533e-39
0.54869759 -0.33158934 0.67515498 2.4908052e-39
0.55006611 -0.33297282 0.67948192 1.3837052e-39
0.54868013 -0.32507661 0.67503875 2.9517932e-39
0.54921776 -0.31590018 0.67466128 2.9517932e-39
0.55034727 -0.31103089 0.67468834 2.9517932e-39
0.5523116 -0.30489638 0.67502284 2.9517932e-39
0.55537927 -0.29513612 0.67510867 6.3622748e-39
0.55738389 -0.28501046 0.67499632 1.1708845e-38
0.55879951 -0.27483448 0.67513633 1.0046799e-38
0.56457162 -0.27379456 0.67741728 8.9433657e-39
0.55957949 -0.26777577 0.67300713 5.9836944e-39
0.56051105 -0.26389673 0.67605579 6.0766103e-39
0.56178439 -0.25508288 0.67480493 5.9833342e-39
0.56349075 -0.24500017 0.67501634 5.8914988e-39
0.56513745 -0.23471631 0.67489743 5.9833342e-39
0.56640774 -0.22498749 0.6748386 5.9833342e-39
0.56736612 -0.21491867 0.67536598 6.0766103e-39
0.56799209 -0.20518808 0.67478734 1.1155308e-38
0.568892 -0.19477302 0.6747092 7.0076372e-39
0.57019275 -0.1910934 0.67925131 2.9517932e-39
0.5696584 -0.18852031 0.67220461 2.9517932e-39
0.57210231 -0.18460244 0.67555058 2.9517932e-39
0.57637036 -0.1750198 0.67512655 2.9517932e-39
0.57935518 -0.16852757 0.67360431 2.9517932e-39
0.58121127 -0.16481802 0.67551816 2.9517932e-39
0.58657396 -0.07099779 0.67574722 7.7390309e-39
0.5783971 -0.061622668 0.67303604 6.5203202e-39
0.58253717 -0.066570751 0.67437631 6.3366492e-39
0.57367665 -0.055051308 0.67448264 6.7958267e-39
0.56748641 -0.044814315 0.67497325 8.7243721e-39
0.5703159 -0.049795829 0.67524159 8.5407011e-39
0.55970097 -0.030993959 0.6763764 8.8162076e-39
0.56249398 -0.035931285 0.67499334 8.7243721e-39
0.55628341 -0.024841923 0.6751684 8.8162076e-39
0.54893804 -0.0117508 0.67554694 8.7243721e-39
0.55159628 -0.016480256 0.67470711 8.8162076e-39
0.54513633 -0.0047541498 0.67493308 8.7243721e-39
0.53875291 0.007070302 0.67514646 8.7243721e-39
0.54125762 0.0024502331 0.67472649 8.7243721e-39
0.53436571 0.015064389 0.67488378 8.7243721e-39
0.52825528 0.025728893 0.67473722 8.7243721e-39
0.53080451 0.021219779 0.67554927 8.7243721e-39
0.52520078 0.035119191 0.67430907 8.9080431e-39
0.52528781 0.045359187 0.67600667 9.7345626e-39
0.52823979 0.050783161 0.67647046 9.8263981e-39
0.53427398 0.054355107 0.6759491 8.9998786e-39
0.54259574 0.059049364 0.67517269 8.7243721e-39
0.54678178 0.061566167 0.67477995 8.7243721e-39
0.55418861 0.065922849 0.67494649 8.8165678e-39
0.56303394 0.069393195 0.67293918 8.8162076e-39
0.56803703 0.071250178 0.67168927 8.8162076e-39
0.57024771 0.071251005 0.67404044 8.8162076e-39
0.64497799 0.1090081 0.67614347 1.0695773e-38
0.65035307 0.10729237 0.67271435 1.1156391e-38
0.63468593 0.11622038 0.67519194 9.5789876e-39
0.64162081 0.11085958 0.67478943 1.1340424e-38
0.62653637 0.12578353 0.67473876 6.0611568e-39
0.63016492 0.12096945 0.6762746 6.2448278e-39
0.62196749 0.13471672 0.67505521 6.1529923e-39
0.61938256 0.14508927 0.67848706 1.0041765e-38
0.62042749 0.14414671 0.67416137 7.9119077e-39
0.61984015 0.15021054 0.67795599 1.1801041e-38
0.62258923 0.15423712 0.67508626 1.161593e-38
0.4592528 0.19976854 0.67718631 6.9172002e-39
0.46120676 0.19888322 0.6754176 9.4975932e-39
0.44927803 0.20872152 0.67455328 6.1821757e-39
0.45370311 0.20384477 0.67522466 7.0112105e-39
0.44511071 0.21503776 0.67478412 4.6119843e-39
0.43706366 0.22629702 0.6753453 2.4904269e-39
0.44090146 0.22116272 0.67413813 2.1216486e-39
0.42970672 0.2386464 0.67216009 6.1821757e-39
0.43175435 0.23454154 0.67520016 6.2743699e-39
0.61803401 0.23855406 0.67436945 8.952547e-39
0.62194604 0.23698366 0.67730069 9.5979122e-39
0.42952058 0.24478766 0.67427754 6.1821757e-39
0.43020138 0.24216501 0.67671901 6.1821757e-39
0.59812284 0.2444316 0.6774165 8.9504212e-39
0.60707098 0.24732053 0.67535228 8.3986641e-39
0.61365819 0.24215062 0.67616785 8.8603527e-39
0.62403947 0.24052091 0.67071807 8.7677998e-39
0.42924094 0.25144333 0.67606527 6.7335376e-39
0.43345979 0.25456804 0.67524678 5.9941607e-39
0.59747481 0.25730374 0.67494214 8.3064699e-39
0.60207659 0.2524474 0.67503345 8.3064685e-39
0.58772439 0.26726642 0.67492783 8.858227e-39
0.59249544 0.26237684 0.67479926 8.3064699e-39
0.6023826 0.2623052 0.67569178 8.4908584e-39
0.57762092 0.27767545 0.67503941 8.4901507e-39
0.58266562 0.27289134 0.67500216 9.1341048e-39
0.5679664 0.28785342 0.67470521 8.3064727e-39
0.57262254 0.28291312 0.67509705 8.3064685e-39
0.55854315 0.29861996 0.67592186 8.3064685e-39
0.56288707 0.29353753 0.67484957 9.5936634e-39
0.54956603 0.30958337 0.67627561 8.3064699e-39
0.55342376 0.30492771 0.67491233 8.3064685e-39
0.54575717 0.31472975 0.6746822 7.3827396e-39
0.54567373 0.32466355 0.67260355 4.7854959e-39
0.55040962 0.32842237 0.67127651 5.520533e-39
0.54819453 0.33065933 0.67936802 3.6805945e-39
0.55184352 -0.33331156 0.68432516 1.8450589e-39
0.54952234 -0.32364109 0.68317205 2.9517932e-39
0.55065852 -0.32629848 0.68509692 2.9517932e-39
0.54890877 -0.31594414 0.68449223 2.9517932e-39
0.55040914 -0.31174305 0.68640667 2.9517932e-39
0.55249137 -0.30499333 0.68522823 2.9517932e-39
0.55589473 -0.29490021 0.68495077 7.0998328e-39
0.55815512 -0.28513822 0.68518728 1.1801041e-38
0.55941486 -0.27671376 0.68463534 1.1708845e-38
0.56024253 -0.27168524 0.68599498 1.1801041e-38
0.56121528 -0.26469997 0.68490481 1.1062753e-38
0.56276226 -0.25496107 0.68507713 9.5854574e-39
0.56447202 -0.24506108 0.68506676 8.9393664e-39
0.55760151 -0.23382281 0.68980443 1.0416661e-38
0.56617266 -0.2353425 0.68499649 9.0315606e-39
0.56784022 -0.22493392 0.68475866 9.4932618e-39
0.56888378 -0.21461764 0.68532938 1.1339701e-38
0.56933826 -0.20523953 0.6840502 1.1801041e-38
0.57022119 -0.20333642 0.68895656 1.1708845e-38
0.56963027 -0.19679654 0.68200219 1.0510675e-38
0.5705508 -0.19427571 0.68605673 4.9797145e-39
0.57246763 -0.18518218 0.68558294 2.9517932e-39
0.57537967 -0.1750847 0.68615657 2.9517932e-39
0.57839948 -0.16759689 0.68610477 2.9517932e-39
0.5835042 -0.16324268 0.68578446 2.951796e-39
0.59269005 -0.16262586 0.68793631 3.04723e-39
0.58493996 -0.071093231 0.68640518 9.9571266e-39
0.57803035 -0.062352896 0.68615824 8.4621906e-39
0.58166707 -0.067294426 0.6863575 8.380436e-39
0.57323587 -0.055108462 0.68527949 8.6419001e-39
0.56729621 -0.044988737 0.68472105 9.1907523e-39
0.5596137 -0.031507723 0.68628776 9.7518504e-39
0.56241471 -0.036330618 0.68498343 9.3773044e-39
0.55625653 -0.025351394 0.68457913 6.5257573e-39
0.54866898 -0.011805052 0.68513644 5.7003308e-39
0.55172485 -0.017285639 0.68553174 5.5170214e-39
0.54463995 -0.0045415605 0.68503237 5.5170228e-39
0.53845078 0.0071899369 0.68497771 1.0030237e-38
0.54091448 0.0024733336 0.6851148 7.8200876e-39
0.5342834 0.015005207 0.68500555 1.0123513e-38
0.5280965 0.025860664 0.68490094 1.0124592e-38
0.53080469 0.02122616 0.68584096 1.0404058e-38
0.52346891 0.034870367 0.68522716 1.0496975e-38
0.52703601 0.044917762 0.68412513 1.0674884e-38
0.53130692 0.04880511 0.68132848 1.019374e-38
0.53575045 0.053911228 0.68401939 9.8408034e-39
0.54224074 0.058725215 0.68591332 8.9321721e-39
0.54644811 0.061223075 0.68548816 8.9303714e-39
0.55410188 0.065794006 0.68544704 9.3927901e-39
0.56297463 0.070943795 0.68836308 1.1615928e-38
0.64625895 0.10882801 0.68488234 1.0603578e-38
0.63559431 0.11576528 0.6850276 1.0504903e-38
0.64136297 0.11101721 0.68524677 1.1432618e-38
0.62706572 0.12557496 0.68477947 6.2448278e-39
0.63065761 0.12068355 0.68536341 6.2448278e-39
0.6221053 0.13505962 0.68483734 6.2448278e-39
0.61953914 0.1457824 0.68410641 1.0227237e-38
0.62036312 0.14227691 0.68849504 6.8008826e-39
0.61958092 0.15109965 0.68586373 1.1801041e-38
0.62366974 0.15502119 0.68551499 1.1801041e-38
0.6306355 0.15947033 0.68083793 1.1801041e-38
0.44530368 0.19956575 0.6898973 6.1810953e-39
0.46317825 0.19894849 0.6841858 8.2075803e-39
0.44933933 0.20885281 0.68541735 7.195243e-39
0.45467275 0.20375781 0.68492019 7.1034075e-39
0.46068677 0.20042919 0.68718839 6.3665684e-39
0.44523332 0.21483693 0.68504578 5.6250461e-39
0.43729636 0.22602092 0.68522561 2.8581234e-39
0.44079363 0.22107092 0.68438774 2.3056769e-39
0.42963332 0.23952462 0.68434572 8.3005046e-39
0.43222404 0.23430303 0.68498605 7.6558582e-39
0.61922067 0.23925744 0.68627864 8.3064685e-39
0.62343061 0.23730633 0.68423063 8.2128534e-39
0.42860353 0.2439498 0.68500298 7.1945171e-39
0.43058604 0.2490696 0.68539971 5.9934362e-39
0.60739559 0.24769837 0.68401295 8.3064699e-39
0.61437821 0.24295717 0.68574864 8.3064685e-39
0.43329367 0.25325671 0.68486112 5.9016007e-39
0.58497965 0.25530079 0.68039912 8.4901521e-39
0.59746146 0.25734007 0.68494725 8.3064699e-39
0.60241652 0.25225714 0.68503225 8.3064685e-39
0.5873282 0.26765177 0.68505162 9.041905e-39
0.59240562 0.26253006 0.68496019 8.3064699e-39
0.57765496 0.27751234 0.68507415 8.3064699e-39
0.58240771 0.27257645 0.68507206 9.0419078e-39
0.56802237 0.28782487 0.68497831 8.3064699e-39
0.57262468 0.28289029 0.68491679 8.3064685e-39
0.55853933 0.2984412 0.68546748 8.3064699e-39
0.56281477 0.29349485 0.68507713 8.398311e-39
0.54951429 0.30935836 0.68594688 8.3064699e-39
0.55370027 0.30437344 0.68481654 8.3064685e-39
0.53486866 0.31205845 0.6831792 7.9369769e-39
0.54586387 0.31475335 0.68512088 8.1217255e-39
0.54588705 0.32435572 0.68589133 5.2525683e-39
0.54742461 0.33054528 0.68548793 3.6805945e-39
0.55067945 -0.33212543 0.69502729 2.8595947e-39
0.54979283 -0.32374918 0.69582963 2.9517932e-39
0.55021924 -0.32675499 0.69525516 2.9517932e-39
0.54957926 -0.31811717 0.69356811 2.9517932e-39
0.55133027 -0.31387755 0.69566274 2.9525106e-39
0.55353957 -0.30504787 0.69482225 2.9517932e-39
0.5564934 -0.29503408 0.69481683 5.6250769e-39
0.55886787 -0.28518251 0.69466299 1.1801041e-38
0.56017286 -0.28093234 0.69856673 1.1801041e-38
0.55967987 -0.27837315 0.69201565 1.1801041e-38
0.56087339 -0.27423313 0.69573593 1.1801041e-38
0.56217974 -0.26527596 0.69478965 1.1801041e-38
0.56384617 -0.2551446 0.69519478 1.1708845e-38
0.56546885 -0.24493556 0.69504029 1.1708845e-38
0.56707019 -0.23466581 0.69501662 1.1708845e-38
0.56854129 -0.22501148 0.69486278 1.1708845e-38
0.5696305 -0.21678713 0.69340193 1.1616651e-38
0.57042712 -0.2134244 0.69680387 1.0971288e-38
0.57113826 -0.20475142 0.69517809 9.2199497e-39
0.57193565 -0.19488481 0.69500637 2.9517932e-39
0.57391965 -0.18469295 0.69484156 2.9517932e-39
0.5771957 -0.17498122 0.69419611 2.9517932e-39
0.5793969 -0.16870034 0.69265079 2.9517932e-39
0.58192497 -0.16553931 0.69469327 2.9517932e-39
0.59546411 -0.16445208 0.69013137 3.1361914e-39
0.58754736 -0.071114302 0.69456589 1.2078709e-38
0.59176666 -0.072710551 0.69519985 1.2908108e-38
0.57871377 -0.061414462 0.69423234 1.2722996e-38
0.58376104 -0.06637004 0.69556892 1.2077262e-38
0.57342619 -0.054300535 0.6955331 1.2446047e-38
0.61365604 -0.058446355 0.6988852 1.4843496e-38
0.56749356 -0.044358306 0.69518495 1.1985068e-38
0.57039976 -0.048480578 0.69916219 1.419776e-38
0.61740261 -0.044485554 0.6958701 1.5212278e-38
0.55943191 -0.031226955 0.69283175 1.143226e-38
0.56252408 -0.035153147 0.69627267 1.2446407e-38
0.55656683 -0.024773788 0.69534272 3.5049656e-39
0.56028664 -0.029033296 0.69925433 1.4290687e-38
0.54894012 -0.012384247 0.69301128 2.9517932e-39
0.55223066 -0.016237922 0.69634491 2.9517932e-39
0.62551361 -0.016945265 0.69913226 1.9545468e-38
0.54589891 -0.0049378644 0.69577038 3.043993e-39
0.55017191 -0.0099062771 0.69956553 2.9517932e-39
0.53894645 0.0077146818 0.69426322 1.1063474e-38
0.54177523 0.0035761721 0.69645685 8.2979991e-39
0.52718878 0.019955721 0.69510865 1.1708485e-38
0.53543913 0.015095985 0.6955604 1.0602496e-38
0.52872825 0.026942946 0.69398063 1.0602495e-38
0.53146046 0.022970468 0.69652271 9.7727354e-39
0.52550161 0.035031661 0.69512355 1.0049324e-38
0.52566636 0.044456512 0.69492489 1.1247503e-38
0.5306794 0.048830051 0.69739217 1.1616286e-38
0.5557707 0.04682726 0.69868004 8.7243721e-39
0.53536052 0.053343348 0.69547206 1.0325909e-38
0.54290092 0.057644922 0.69716728 9.4039542e-39
0.54733092 0.060788024 0.69545674 9.0351717e-39
0.55528742 0.06516026 0.69469613 1.0418106e-38
0.56465364 0.068045102 0.69585323 1.281519e-38
0.5728718 0.068794385 0.69986594 1.4935329e-38
0.56690556 0.071062505 0.69225132 1.3921177e-38
0.57305682 0.070856526 0.69590539 1.428996e-38
0.62794912 0.10786362 0.69689476 1.687216e-38
0.64743191 0.10866039 0.69451863 1.078797e-38
0.63557476 0.11619296 0.69489139 1.1523015e-38
0.64245611 0.11106857 0.69531345 1.1709565e-38
0.62713432 0.12604263 0.69483685 1.0134322e-38
0.63078755 0.12108622 0.69374323 9.5789876e-39
0.62258351 0.13457595 0.69506824 1.0597458e-38
0.61972868 0.1477575 0.6949631 1.1708845e-38
0.62040544 0.14306194 0.69576991 1.161557e-38
0.61944991 0.15034848 0.69353801 1.1801041e-38
0.62361312 0.15538162 0.69631106 1.1801041e-38
0.63044894 0.15957333 0.69611597 1.1893236e-38
0.46332866 0.19935745 0.69482601 8.3001346e-39
0.44929412 0.20916091 0.69423151 6.1821757e-39
0.45398411 0.20474161 0.69553643 6.0896185e-39
0.46164379 0.20036469 0.69496495 6.9186533e-39
0.44536653 0.21505292 0.69529325 5.8130358e-39
0.43755323 0.22626977 0.69512087 5.3517032e-39
0.44092894 0.22134124 0.69544989 5.2595075e-39
0.42974398 0.2388618 0.69468021 6.1821757e-39
0.43244532 0.23380393 0.69561088 6.0896199e-39
0.61771083 0.23760182 0.69590837 8.3990229e-39
0.62388641 0.23711093 0.69599372 9.5954333e-39
0.42911437 0.24331982 0.69464308 6.1814512e-39
0.43089101 0.24856342 0.69631833 5.9963341e-39
0.60707331 0.24702182 0.69552612 8.3064685e-39
0.6133731 0.24205518 0.69424081 8.3064685e-39
0.43486255 0.25429755 0.69556993 5.624295e-39
0.59715104 0.257258 0.69504243 8.3064685e-39
0.6021505 0.25213358 0.69493568 8.3064699e-39
0.44777757 0.26136056 0.69919848 4.8838362e-39
0.5873282 0.2673775 0.69510281 8.3064699e-39
0.59216875 0.26241457 0.69528854 8.3064699e-39
0.60188937 0.2669687 0.6997447 8.3986641e-39
0.57740688 0.27728462 0.69494253 8.3064685e-39
0.58229375 0.27260593 0.69505757 8.3064685e-39
0.5678733 0.28803071 0.69526607 8.3064685e-39
0.57266182 0.28279027 0.69502413 8.3064685e-39
0.55884999 0.29829428 0.69502354 8.3064685e-39
0.56293541 0.29352567 0.69500691 8.3064685e-39
0.54964888 0.30931437 0.6914705 8.3064685e-39
0.55369198 0.3046664 0.69494057 8.5823323e-39
0.54866326 0.31531069 0.69300854 9.3206078e-39
0.55077577 0.31291792 0.6945132 9.4131608e-39
0.54777008 0.32456246 0.69275558 8.9514708e-39
0.55242687 -0.33294815 0.70661199 1.8450561e-39
0.55093378 -0.3249017 0.70517123 2.8599563e-39
0.55181515 -0.31513929 0.70521039 2.8599577e-39
0.55425525 -0.30484006 0.70523107 2.8603164e-39
0.55713534 -0.29470691 0.70505166 5.072629e-39
0.55928212 -0.28699365 0.70428485 1.1341144e-38
0.56061542 -0.28256261 0.70590419 1.1157473e-38
0.56195563 -0.27522457 0.70489752 1.1065279e-38
0.57036167 -0.27246541 0.70398402 2.786447e-39
0.56370515 -0.26490346 0.70490468 1.1157475e-38
0.56534022 -0.25488549 0.70520461 1.1249309e-38
0.56667668 -0.2450178 0.70491201 1.1617009e-38
0.56801623 -0.2351189 0.70492923 1.1708846e-38
0.56933129 -0.22539102 0.70452255 1.0879453e-38
0.57049674 -0.22212976 0.70672828 3.9691667e-39
0.56781828 -0.21401241 0.70526499 1.0879093e-38
0.57100958 -0.21467111 0.70539713 3.2283759e-39
0.57233119 -0.20532577 0.70464259 2.9517932e-39
0.57384771 -0.19494438 0.70527726 2.8599577e-39
0.58026373 -0.19932495 0.70094734 2.9517932e-39
0.5759877 -0.18484205 0.70498168 2.9517932e-39
0.57799166 -0.17549351 0.70468342 2.8603164e-39
0.58042395 -0.17251536 0.70873803 2.9517932e-39
0.57915217 -0.16854021 0.70303345 2.9517932e-39
0.58411658 -0.16531529 0.70511055 2.9517932e-39
0.59112734 -0.16159149 0.7078687 3.0439944e-39
0.57942408 -0.060094848 0.70059156 1.2630801e-38
0.58550829 -0.062710948 0.70376527 1.2630438e-38
0.59325063 -0.064482197 0.7046603 1.631754e-38
0.60023487 -0.061199717 0.70563251 1.4842052e-38
0.57675886 -0.053713396 0.70236379 1.3828983e-38
0.58449215 -0.054538708 0.70563662 1.7701197e-38
0.59497064 -0.055134937 0.7068314 1.5488866e-38
0.6045357 -0.054112196 0.70641744 1.5120083e-38
0.61489093 -0.052508138 0.70365524 1.4935692e-38
0.62254405 -0.052281857 0.70121288 1.68718e-38
0.56886929 -0.041969851 0.70103842 1.2907384e-38
0.57442063 -0.044654466 0.70310807 1.67796e-38
0.58490264 -0.045143176 0.70497733 1.6963634e-38
0.5959264 -0.045143057 0.7057212 1.4935692e-38
0.60481161 -0.044675469 0.70636362 1.5027888e-38
0.61445957 -0.04483138 0.70642644 1.7517167e-38
0.62478793 -0.045047395 0.70499688 1.7885229e-38
0.63145256 -0.042426404 0.70405936 1.9268524e-38
0.56649637 -0.034276087 0.70214593 1.4290324e-38
0.57514215 -0.035007223 0.70452583 1.8254372e-38
0.58501935 -0.03522272 0.70525652 1.539667e-38
0.59475124 -0.035092503 0.70560449 1.4935692e-38
0.60511881 -0.034777295 0.70592469 1.6318626e-38
0.61461061 -0.035179369 0.7064243 1.9084132e-38
0.62412918 -0.035339277 0.70710337 1.9545111e-38
0.63213801 -0.037700862 0.70535409 2.0006089e-38
0.55857843 -0.02261325 0.70138711 3.6901065e-39
0.56488442 -0.025188969 0.70365757 9.4054803e-39
0.57514787 -0.025412962 0.7056703 1.594985e-38
0.58533812 -0.024929279 0.70571917 1.5304475e-38
0.59490424 -0.024643203 0.70567971 1.5212278e-38
0.60447019 -0.024872886 0.70591676 1.8346926e-38
0.61411476 -0.025629763 0.70698076 1.8992297e-38
0.62368077 -0.026200363 0.70466328 1.7424248e-38
0.55629504 -0.01487889 0.70272756 3.8745048e-39
0.5645926 -0.01509688 0.70570612 4.612451e-39
0.57448453 -0.01499757 0.70640069 6.0872111e-39
0.58507639 -0.014677986 0.70617324 1.1525233e-38
0.59561622 -0.015003434 0.70608121 1.7424613e-38
0.60582566 -0.015301953 0.70657891 1.9268885e-38
0.61451072 -0.015566271 0.70653427 1.9176328e-38
0.62217003 -0.019203199 0.70286107 1.7331691e-38
0.54867864 -0.0031920359 0.70123869 3.6901051e-39
0.55427647 -0.0053910064 0.70461428 4.0589002e-39
0.56433356 -0.0046309382 0.7066074 4.8890477e-39
0.57452875 -0.0048639546 0.70649236 4.8890463e-39
0.58492821 -0.0051024961 0.70634782 4.9812419e-39
0.59537047 -0.0053384462 0.70636624 8.2995265e-39
0.60482794 -0.0057070684 0.70673728 1.6780356e-38
0.61248457 -0.0058546583 0.70584232 1.548963e-38
0.5461967 0.0054464513 0.70306844 8.9437384e-39
0.55451369 0.0047821528 0.70623082 4.704648e-39
0.56446069 0.0047646686 0.70645124 4.8894064e-39
0.57457572 0.0046158982 0.7064361 4.8890463e-39
0.58491206 0.0044635772 0.70636714 4.8894064e-39
0.59543717 0.0051127099 0.70628893 4.8890463e-39
0.60444027 0.0043512164 0.70624334 4.9812433e-39
0.61154401 0.003219435 0.70375061 5.0738005e-39
0.53808814 0.017001135 0.70203036 1.1708485e-38
0.54468185 0.014754333 0.70451635 1.5488874e-38
0.55501908 0.015002678 0.70583814 9.3136448e-39
0.56475329 0.014945633 0.706092 5.1656275e-39
0.57468128 0.014887224 0.70630866 4.8890449e-39
0.58485383 0.014826538 0.70643562 4.8890477e-39
0.59529394 0.015428168 0.70628655 4.8890477e-39
0.60331625 0.01444095 0.70453995 4.8890449e-39
0.5299896 0.028875973 0.70080316 9.0351717e-39
0.53532076 0.025305254 0.70263433 1.5857648e-38
0.5450483 0.025086213 0.70485568 1.5488866e-38
0.55529845 0.025079792 0.7056722 1.4935332e-38
0.5649451 0.025136711 0.70585704 1.3461305e-38
0.57468975 0.02516135 0.70629799 8.1151296e-39
0.58472782 0.025187194 0.70658457 4.8890477e-39
0.59368271 0.024497442 0.70614815 6.9166032e-39
0.52807379 0.036137201 0.70195007 1.3736783e-38
0.53468382 0.034932233 0.70406759 1.6963996e-38
0.54515123 0.034956262 0.70502484 1.4935692e-38
0.55530798 0.035225242 0.7054776 1.5027888e-38
0.56493628 0.034723997 0.70570916 1.5673256e-38
0.5747388 0.034713782 0.70615262 1.9084491e-38
0.58456552 0.034509156 0.7060203 1.4475479e-38
0.59210157 0.034051083 0.7040363 1.7424251e-38
0.52759171 0.042783853 0.70201546 1.4382514e-38
0.53444093 0.045196433 0.7037794 1.5120083e-38
0.54507154 0.045146372 0.70482761 1.4935692e-38
0.55513483 0.045330755 0.70569319 1.4935692e-38
0.56493878 0.044874076 0.70600897 1.8346928e-38
0.57495862 0.044641916 0.70551497 1.9729131e-38
0.58359444 0.044886518 0.70436555 1.9452914e-38
0.59059566 0.041285284 0.70211089 2.0282677e-38
0.53731227 0.051511455 0.70142329 1.2262016e-38
0.54541731 0.053837929 0.70299238 1.2815193e-38
0.55471593 0.055007644 0.70532697 1.4105931e-38
0.56490463 0.054911662 0.70679313 1.8715353e-38
0.57505888 0.0546728 0.70605135 2.0282673e-38
0.58360153 0.054472268 0.70258933 2.0467428e-38
0.54956079 0.060088299 0.70034248 1.1985432e-38
0.55585206 0.061772376 0.70306695 1.1524454e-38
0.56476486 0.06326434 0.70519012 1.5857648e-38
0.57350796 0.064072542 0.7048521 1.7332776e-38
0.64948928 0.10885172 0.70132709 1.1525536e-38
0.63621902 0.11676739 0.70457613 1.1801041e-38
0.64440334 0.11206411 0.70542872 1.2723358e-38
0.65414006 0.11248557 0.70661592 1.7793757e-38
0.62770337 0.12663817 0.70502204 1.1708845e-38
0.63124985 0.1216573 0.70531511 1.1708845e-38
0.62343198 0.13530268 0.70513463 1.1801041e-38
0.62196577 0.14568833 0.70531547 1.2722997e-38
0.624551 0.15343004 0.70501715 1.3183975e-38
0.63188297 0.15587427 0.70685005 1.5304475e-38
0.45518002 0.20597637 0.70524901 4.6021893e-39
0.46496353 0.20384575 0.70609164 6.2602645e-39
0.47280052 0.20742899 0.7070843 6.7194363e-39
0.44712797 0.21595353 0.70490795 4.3266884e-39
0.45181069 0.21263005 0.70852852 4.9684438e-39
0.47586763 0.21279399 0.70819163 6.533236e-39
0.43834749 0.22779889 0.70397252 4.3270513e-39
0.44277266 0.22395405 0.70644999 4.5096321e-39
0.47505903 0.22563246 0.70937186 6.6247114e-39
0.43444619 0.23517674 0.7056694 4.4178008e-39
0.44027758 0.23092371 0.70973629 5.1524736e-39
0.47168642 0.2347737 0.70712769 6.4410404e-39
0.60873181 0.23197405 0.70092839 8.3064685e-39
0.61571288 0.23885982 0.70517474 8.952547e-39
0.62387103 0.23934077 0.70096725 1.1903515e-38
0.42982954 0.24231233 0.70102048 4.0501015e-39
0.43274996 0.24519651 0.70613885 4.2326851e-39
0.46754706 0.24093524 0.70824194 6.3488461e-39
0.60693514 0.24703872 0.70530403 8.3064685e-39
0.61170733 0.24191849 0.70496136 8.3064685e-39
0.62839532 0.24014896 0.70086825 9.0351717e-39
0.63067156 0.24055558 0.70081854 9.0351717e-39
0.43638125 0.25312275 0.70505518 4.2334081e-39
0.44336048 0.25662869 0.70725119 4.4167134e-39
0.45729899 0.25635925 0.70607042 6.2570106e-39
0.59720653 0.25691259 0.70496023 8.3064699e-39
0.60191649 0.2521624 0.70509213 8.3064685e-39
0.44938159 0.26144409 0.70052052 4.6979988e-39
0.5872553 0.26727775 0.70500815 8.3064699e-39
0.59212583 0.26217893 0.70522988 8.3064685e-39
0.57768768 0.27736303 0.70513928 8.3064685e-39
0.58238125 0.27238131 0.70499188 8.3064699e-39
0.56795281 0.28795305 0.70495278 8.9496715e-39
0.57262522 0.2828674 0.70520568 8.398304e-39
0.55867147 0.29881921 0.7048583 8.2067465e-39
0.56305665 0.29353285 0.70506805 8.8542445e-39
0.54977179 0.30964166 0.70379108 4.1494858e-39
0.5537172 0.30470419 0.70513433 8.8503531e-39
0.54620832 0.31437832 0.70592624 7.0128794e-39
0.54380298 0.32476372 0.70604777 4.2359151e-39
0.54467344 0.33024156 0.70901358 3.6805945e-39
0.56321031 -0.34112245 0.71673477 2.9521561e-39
0.55612695 -0.33461189 0.71399295 2.4908066e-39
0.56070775 -0.33806551 0.71711069 2.9521561e-39
0.55209261 -0.32500038 0.71474594 2.5847987e-39
0.55342788 -0.31510878 0.71512949 2.789321e-39
0.55533487 -0.30505675 0.71491927 2.7896798e-39
0.55811441 -0.29511788 0.71511722 2.7903986e-39
0.5595693 -0.28900599 0.71283984 2.8825929e-39
0.56105125 -0.28420836 0.71539432 2.7903986e-39
0.56307888 -0.27470517 0.71498227 2.7903986e-39
0.56496501 -0.26476473 0.71494973 2.7907574e-39
0.56640077 -0.25504854 0.71505249 2.7907574e-39
0.56780791 -0.24520409 0.71487004 3.066624e-39
0.56921709 -0.23517354 0.71489275 3.1584581e-39
0.57012606 -0.23076892 0.71783745 2.7907588e-39
0.56968004 -0.22907124 0.71150893 4.8132907e-39
0.57077914 -0.22445068 0.71550047 2.7900399e-39
0.57201064 -0.21526229 0.71492094 2.7878833e-39
0.57340699 -0.20505373 0.7149905 2.7868057e-39
0.57477391 -0.19470887 0.71550691 2.7878833e-39
0.57714564 -0.1851138 0.71497446 2.7832128e-39
0.57918751 -0.17872353 0.71484554 2.7810576e-39
0.58141124 -0.17366146 0.71330708 2.7771045e-39
0.58511597 -0.16638753 0.71373266 2.9557504e-39
0.5946039 -0.16352265 0.71374232 3.5979067e-39
0.60198152 -0.0083315596 0.71052295 1.8254732e-38
0.59685528 0.00038190559 0.71227705 4.8894078e-39
0.59248328 0.032319631 0.71580094 1.0143024e-38
0.63801789 0.11803874 0.71238685 1.1154948e-38
0.64446139 0.1165873 0.7137323 1.5027888e-38
0.65210927 0.11643207 0.71151233 2.046743e-38
0.62861913 0.12806708 0.71412677 1.1708845e-38
0.63377219 0.12253749 0.71526808 1.1340061e-38
0.64270937 0.12046789 0.71946228 1.4290683e-38
0.6515907 0.12066607 0.71495861 1.9545474e-38
0.62688088 0.13514011 0.71472728 1.1801041e-38
0.62664533 0.14430544 0.71350366 1.3644953e-38
0.63339221 0.14723812 0.71614128 1.4659105e-38
0.62817681 0.15244092 0.71102703 1.6124153e-38
0.63419783 0.15186101 0.71272635 1.5765453e-38
0.4580521 0.20874292 0.71057689 5.0606381e-39
0.46422246 0.20891382 0.71137756 5.9807867e-39
0.44951382 0.21854085 0.71044612 4.8766083e-39
0.45567414 0.2153262 0.71214509 5.7045627e-39
0.46470964 0.21515509 0.71335244 6.4406816e-39
0.47277647 0.21616749 0.71201611 6.5328759e-39
0.44690233 0.22629671 0.71148956 5.3365033e-39
0.45498016 0.22482918 0.7139619 6.0726222e-39
0.46504414 0.22450657 0.71389061 6.6247114e-39
0.47207782 0.22397779 0.71154505 6.6247114e-39
0.61273956 0.22961161 0.71340621 7.5642904e-39
0.43833882 0.23690625 0.71094781 5.1524736e-39
0.44479191 0.23492187 0.71288818 5.9807867e-39
0.45440334 0.23501591 0.71423531 6.3488461e-39
0.46393052 0.2343699 0.71252799 6.6247114e-39
0.61683953 0.23880741 0.7146244 8.5834113e-39
0.62500817 0.23776998 0.71545452 7.1026046e-39
0.43773922 0.24460502 0.71176404 5.1528323e-39
0.44477126 0.24491338 0.71382374 6.0729809e-39
0.45430982 0.24455409 0.71380657 6.4410404e-39
0.46216339 0.24283521 0.7118963 6.4410404e-39
0.60744941 0.24740563 0.7150932 8.3064685e-39
0.61236978 0.24222009 0.71478218 8.3064685e-39
0.43971312 0.25088334 0.71062589 5.2446678e-39
0.4454923 0.25274894 0.71197152 5.4286975e-39
0.45422429 0.25233656 0.71227413 6.0729809e-39
0.59719408 0.25723928 0.71465027 8.3064685e-39
0.60263491 0.25218549 0.71460003 8.3064685e-39
0.44514605 0.2637707 0.71589541 4.5089104e-39
0.58720732 0.26698679 0.71490967 8.9496715e-39
0.59213668 0.26196635 0.71513218 8.4901381e-39
0.57748002 0.27764949 0.71488369 8.667726e-39
0.58211231 0.27250364 0.71532786 8.3929132e-39
0.56832558 0.28776366 0.71485382 9.7723388e-39
0.57270545 0.28293568 0.71504623 9.0347457e-39
0.5589779 0.29850847 0.71492368 1.1063477e-38
0.56331438 0.29345226 0.71506733 1.0325909e-38
0.54932934 0.30938673 0.71532559 4.7058783e-39
0.55399734 0.30428472 0.71521652 9.127366e-39
0.54619968 0.31453934 0.71477801 5.5370557e-39
0.54541999 0.32513997 0.71412694 3.682035e-39
0.54582131 0.33092245 0.71367276 3.6805945e-39
0.56646532 -0.34286192 0.72100741 2.9517932e-39
0.555713 -0.3323448 0.72627199 1.9372559e-39
0.56147861 -0.33795723 0.72099519 2.9517932e-39
0.55341625 -0.32498005 0.72510999 2.3078475e-39
0.55475539 -0.31462696 0.72523946 2.7900399e-39
0.55673718 -0.3049227 0.72478586 2.7903986e-39
0.55902684 -0.29616562 0.72478449 2.7903986e-39
0.56049752 -0.2913397 0.72635061 2.7903986e-39
0.56181592 -0.28518453 0.72489661 2.7903986e-39
0.56397069 -0.27506733 0.72500384 2.7903986e-39
0.5658291 -0.26511842 0.72497225 2.7903986e-39
0.5673188 -0.25521669 0.72491139 2.7903986e-39
0.56887817 -0.24511321 0.72516358 2.7903986e-39
0.57009691 -0.24019732 0.72862625 2.7907588e-39
0.56963742 -0.23818567 0.7229178 2.7907588e-39
0.57069242 -0.23386902 0.72584319 2.7903986e-39
0.57191783 -0.22506493 0.72494322 2.7903986e-39
0.57344335 -0.21499714 0.72490978 2.7903986e-39
0.57482827 -0.20477255 0.72508126 2.7903986e-39
0.57590538 -0.19515049 0.72496217 2.7903986e-39
0.57710981 -0.18504918 0.72517085 2.7903986e-39
0.57897997 -0.17647812 0.72458237 2.7911203e-39
0.58247703 -0.1721779 0.7263003 3.0698708e-39
0.58605194 -0.16710047 0.72353518 3.0630423e-39
0.59290218 -0.16334748 0.7266655 3.1437402e-39
0.62954497 0.12908667 0.72146624 1.1801041e-38
0.63398409 0.12561266 0.72497588 1.1706323e-38
0.64201719 0.12256689 0.72529733 1.5302315e-38
0.62887841 0.13491121 0.72337145 1.1705964e-38
0.63156253 0.13461295 0.72803932 1.1954463e-38
0.62970901 0.14138074 0.72129047 1.1801041e-38
0.63499492 0.1431881 0.72434038 1.2624679e-38
0.64145559 0.14414708 0.72696793 1.3899575e-38
0.61755556 0.23930807 0.72248691 9.0447426e-39
0.62402266 0.23818497 0.72560555 7.5650022e-39
0.60750127 0.24733169 0.72492313 9.316652e-39
0.61305791 0.24208698 0.72525847 8.4912171e-39
0.59721845 0.25742176 0.72499955 9.2201894e-39
0.60251665 0.25244853 0.72477388 7.8397534e-39
0.58728051 0.26677993 0.72493285 9.5883175e-39
0.5924089 0.26198113 0.72508627 9.4031751e-39
0.57770038 0.27746657 0.72496068 1.1708845e-38
0.58239222 0.27247658 0.72523671 1.0786889e-38
0.56809366 0.28801402 0.72533906 1.0141521e-38
0.57247168 0.28311762 0.72486126 1.1524454e-38
0.55886942 0.29884434 0.72508895 7.5600416e-39
0.56309271 0.29387781 0.72486961 8.4819979e-39
0.54969025 0.30974191 0.72533876 4.1530549e-39
0.55386496 0.30472064 0.72517061 7.6522331e-39
0.54655558 0.31499633 0.7255199 7.9369741e-39
0.54385203 0.32479665 0.72610283 5.5316649e-39
0.54279453 0.33008659 0.72588402 3.5884003e-39
0.56521392 -0.34111938 0.73786783 2.9521547e-39
0.55684477 -0.33341399 0.73498887 1.8446973e-39
0.56226081 -0.33867481 0.73781949 2.9521547e-39
0.55583757 -0.32455447 0.7344169 2.5848015e-39
0.55630445 -0.31504714 0.73523265 2.7814163e-39
0.55789429 -0.30496261 0.73483962 2.7824939e-39
0.55953312 -0.29796061 0.73490804 2.7824939e-39
0.56075317 -0.29294786 0.73524255 2.7810562e-39
0.55951488 -0.28087282 0.73600924 2.7860868e-39
0.56261939 -0.28489581 0.73498154 2.781775e-39
0.56456161 -0.27493027 0.73511481 2.7814163e-39
0.56617081 -0.26479968 0.73492819 2.7821352e-39
0.56799233 -0.25483981 0.73482221 2.782854e-39
0.56941175 -0.24727224 0.73510504 2.782854e-39
0.57039201 -0.24211204 0.73551166 2.7810576e-39
0.57172906 -0.2352228 0.73471528 2.8750511e-39
0.57292348 -0.2252728 0.73503965 2.7835715e-39
0.57442081 -0.21492741 0.73522508 2.7842904e-39
0.57573128 -0.20515761 0.7349965 2.7846505e-39
0.57700032 -0.19524117 0.73496109 2.785368e-39
0.57836604 -0.18493414 0.73492378 2.7875246e-39
0.58084977 -0.18133214 0.73877716 2.961144e-39
0.579099 -0.17927675 0.73234397 2.7907588e-39
0.58329666 -0.17451411 0.73625481 2.9726403e-39
0.587174 -0.16693963 0.73564345 3.0652003e-39
0.59366584 -0.16407254 0.73433727 3.3274168e-39
0.60186327 -0.1633788 0.73353726 3.4131469e-39
0.63773805 0.12762524 0.73178864 1.3266448e-38
0.64228427 0.12702511 0.73225033 1.5270988e-38
0.63617259 0.13403657 0.7344383 1.2139216e-38
0.64221436 0.13617118 0.73687762 1.5986948e-38
0.63638109 0.14024138 0.73202586 1.304713e-38
0.64160228 0.1405983 0.73366106 1.4425743e-38
0.61936611 0.23986121 0.73237371 8.4908584e-39
0.6246621 0.23872897 0.73572516 7.564296e-39
0.60757798 0.24733874 0.73477739 6.7359478e-39
0.61431259 0.24214271 0.73527396 8.6756055e-39
0.62134856 0.24060327 0.73961562 1.1074813e-38
0.59750599 0.25751776 0.73506302 1.1616649e-38
0.60256892 0.25250685 0.73510134 1.1340062e-38
0.58711731 0.26737112 0.73519367 9.0355319e-39
0.59249198 0.26235038 0.73465443 1.0879084e-38
0.5777002 0.27738976 0.7354272 7.2834548e-39
0.58215272 0.2726002 0.73493016 9.1273674e-39
0.56824559 0.28789505 0.73534173 6.7302824e-39
0.57271135 0.28284419 0.73490977 8.1135756e-39
0.55901402 0.2987774 0.73508888 8.3898037e-39
0.56325537 0.29374853 0.73477632 8.5741936e-39
0.5539735 0.30487877 0.73485494 8.2057656e-39
0.54838336 0.31556013 0.73501933 7.8451386e-39
0.55037493 0.31059831 0.73320436 3.3225866e-39
0.54530066 0.32500896 0.73501688 8.3064685e-39
0.5436061 0.33042306 0.73435748 7.1039933e-39
0.56483048 -0.34082925 0.74872744 2.9517932e-39
0.55740368 -0.33251432 0.74529445 2.5826407e-39
0.56091791 -0.33692491 0.74749619 2.9517932e-39
0.55721641 -0.32504764 0.74492115 2.4904437e-39
0.55828834 -0.31497645 0.74479091 2.9517932e-39
0.5592128 -0.3058674 0.74425012 2.9517932e-39
0.56050742 -0.3026253 0.74784458 2.9517932e-39
0.55983847 -0.298361 0.74066401 2.9517932e-39
0.56154346 -0.29471424 0.74508828 2.9517932e-39
0.56338054 -0.28487894 0.74497819 2.9517932e-39
0.56482428 -0.27509955 0.74509203 2.9517932e-39
0.61258358 -0.27078199 0.74887264 5.3503888e-39
0.56627512 -0.26527065 0.74489379 2.9517932e-39
0.6122151 -0.2674475 0.74926168 5.534773e-39
0.56816757 -0.25519431 0.74508739 2.9517932e-39
0.56961465 -0.24754457 0.74446136 2.9517932e-39
0.57057059 -0.24329178 0.74585414 2.9517932e-39
0.57216632 -0.2350674 0.74525958 2.9517932e-39
0.57406527 -0.22480629 0.74545103 2.9517932e-39
0.62175035 -0.22700603 0.74842978 6.4566999e-39
0.57560366 -0.21514687 0.74530959 2.9517932e-39
0.62327015 -0.21285425 0.74914247 5.9957315e-39
0.57709926 -0.20515393 0.74506855 2.9517932e-39
0.57845598 -0.19533584 0.74485904 2.9517932e-39
0.58042151 -0.1924959 0.7489621 2.9521561e-39
0.57917237 -0.18789123 0.74276298 2.9517932e-39
0.58150673 -0.18404415 0.74605411 2.951796e-39
0.58540481 -0.17510995 0.74473387 2.9528722e-39
0.59070837 -0.17011291 0.74374986 2.9517932e-39
0.58914936 -0.16751769 0.74891919 2.9517932e-39
0.59413821 -0.16468449 0.7447744 3.0461496e-39
0.64006108 0.13328436 0.74107689 1.4425022e-38
0.62738937 0.23933977 0.74408883 7.0990635e-39
0.60738236 0.24772429 0.74498731 7.1050835e-39
0.61305839 0.24305476 0.74530452 8.3986641e-39
0.62396407 0.241052 0.74319321 8.5795073e-39
0.59742105 0.25753886 0.7450614 7.9288242e-39
0.60279965 0.25245601 0.74518663 7.5600431e-39
0.58711123 0.26718974 0.74476999 7.0065077e-39
0.59237921 0.26217881 0.74548554 7.1916207e-39
0.57776052 0.27770713 0.74504745 7.8366299e-39
0.58233362 0.27255544 0.74508566 9.1270072e-39
0.56821132 0.28818452 0.74484044 9.4961499e-39
0.57277375 0.2832289 0.74503982 9.4039556e-39
0.55895722 0.29861003 0.74516463 1.1708845e-38
0.56334913 0.29357117 0.74511093 1.1340061e-38
0.54956216 0.30977115 0.74429172 6.0912903e-39
0.55387527 0.3046017 0.74495119 9.4046647e-39
0.54676819 0.31438735 0.74569696 8.3061098e-39
0.54405773 0.3259185 0.7453171 6.0859051e-39
0.54523373 0.3306421 0.74405903 4.7908755e-39
0.56701142 -0.34158298 0.7558707 3.043979e-39
0.57224476 -0.34143272 0.75910562 2.0294613e-39
0.5585323 -0.33316243 0.75143284 2.3064112e-39
0.56479335 -0.33489883 0.75551504 2.3064084e-39
0.57338756 -0.33470786 0.75882727 3.4127615e-39
0.58427447 -0.33351651 0.75590241 4.9812447e-39
0.59082401 -0.33059675 0.75393409 5.1660003e-39
0.55869597 -0.32532364 0.75164449 2.2142127e-39
0.56406564 -0.32514393 0.75655007 3.9667018e-39
0.57433617 -0.32524192 0.75840402 4.6128111e-39
0.58460772 -0.32459348 0.75717062 5.0738019e-39
0.59400064 -0.32267836 0.75406677 5.0741662e-39
0.55892646 -0.31535405 0.7517364 3.1372592e-39
0.56393999 -0.31499812 0.75719327 3.781942e-39
0.57498789 -0.31637597 0.75953376 4.8894064e-39
0.58514452 -0.31482765 0.75864714 5.0738019e-39
0.59445268 -0.31440195 0.75587457 5.1663604e-39
0.60287231 -0.31659579 0.7500481 4.8893966e-39
0.56298983 -0.30507216 0.75574809 3.136553e-39
0.58586186 -0.30494365 0.75922096 5.0738047e-39
0.59471387 -0.30511308 0.75642383 5.1660017e-39
0.60248524 -0.30328193 0.7527439 5.0738033e-39
0.56490636 -0.29515168 0.75548303 3.2287514e-39
0.58613575 -0.2948164 0.75903612 5.0738047e-39
0.5949024 -0.29500735 0.75645286 5.1660003e-39
0.60148114 -0.29485139 0.75414217 5.1660017e-39
0.56640524 -0.28550667 0.75455064 3.3209512e-39
0.57262105 -0.2839033 0.75925905 3.7823035e-39
0.58503425 -0.28498805 0.75902355 5.0738019e-39
0.59463543 -0.28498456 0.75650752 5.1660003e-39
0.60207963 -0.28528851 0.75422823 5.1660003e-39
0.5673126 -0.27515376 0.75402737 3.1361928e-39
0.57290643 -0.27498591 0.75914425 3.9670605e-39
0.58532262 -0.27509901 0.75888258 5.0738019e-39
0.59467965 -0.27480367 0.75669217 5.1660003e-39
0.60376674 -0.2748096 0.75365984 5.1660017e-39
0.56824094 -0.26511711 0.75325292 3.043993e-39
0.5725497 -0.26435426 0.7584008 3.6901037e-39
0.58574587 -0.26554233 0.7588467 5.0738033e-39
0.59425944 -0.26497498 0.75690597 5.1660003e-39
0.60321164 -0.26488924 0.75424957 5.1660003e-39
0.61050236 -0.26268506 0.75107062 5.3503888e-39
0.56926215 -0.25560746 0.75224948 2.9517932e-39
0.57329011 -0.25451601 0.7576322 3.6901051e-39
0.5867762 -0.25542054 0.75908989 5.1660003e-39
0.59554666 -0.25504392 0.7568633 5.0738047e-39
0.6052466 -0.25495294 0.75435936 5.1659989e-39
0.61178648 -0.25413546 0.75199831 5.2581945e-39
0.57406706 -0.24504761 0.75632071 3.5053481e-39
0.58814222 -0.24538364 0.7597537 5.1660003e-39
0.59478873 -0.24508806 0.75807256 5.1660003e-39
0.6049149 -0.24489665 0.75551361 5.0734431e-39
0.61181456 -0.24532698 0.75327164 5.1660003e-39
0.57568264 -0.2352777 0.75577551 3.4131469e-39
0.5817306 -0.23389071 0.75983214 4.704648e-39
0.59607458 -0.23514396 0.75893152 5.1660003e-39
0.60488576 -0.23530285 0.75654346 5.0738047e-39
0.61368972 -0.23494664 0.75319397 5.1659975e-39
0.62034661 -0.23757134 0.75241989 4.9812405e-39
0.57730514 -0.22560284 0.75467908 3.1365544e-39
0.58320296 -0.22507897 0.75943702 4.3358571e-39
0.59793437 -0.22659642 0.75948358 5.1660003e-39
0.60488248 -0.22456557 0.75783581 6.7329491e-39
0.61409324 -0.22482863 0.75434345 5.2581959e-39
0.57842404 -0.21550702 0.7537809 3.0439944e-39
0.58193308 -0.21465456 0.75846511 3.5975451e-39
0.59761596 -0.21379539 0.75927407 1.3276943e-38
0.60508174 -0.21548469 0.75860971 1.6129186e-38
0.61310196 -0.21470499 0.75619966 1.6131731e-38
0.62000602 -0.21001026 0.75252789 5.1660017e-39
0.5790782 -0.20602342 0.75223863 2.9517932e-39
0.58200037 -0.20451573 0.75720018 3.1365544e-39
0.60521191 -0.20518371 0.75892198 1.1142317e-38
0.61424714 -0.20467646 0.75610036 1.1518721e-38
0.62292433 -0.2011832 0.75178647 5.1660017e-39
0.57966065 -0.19883883 0.75103045 2.9517932e-39
0.58295023 -0.19430657 0.75558174 3.0443545e-39
0.59002995 -0.19877355 0.75050557 1.0142317e-38
0.60638529 -0.19496235 0.75872588 1.0680616e-38
0.61432177 -0.1948781 0.75616807 1.3267885e-38
0.6212281 -0.19501531 0.75353932 1.5489641e-38
0.58534342 -0.18479545 0.75508028 3.0443531e-39
0.60568857 -0.18481497 0.75853896 1.3270036e-38
