# .PCD v0.7 - Point Cloud Data file format
VERSION 0.7
FIELDS x y z rgb
SIZE 4 4 4 4
TYPE F F F F
COUNT 1 1 1 1
WIDTH 1011
HEIGHT 1
VIEWPOINT 0 0 0 1 0 0 0
POINTS 1011
DATA ascii
0.41497099 -0.61494166 0.61000049 1.097128e-38
0.42527556 -0.61489314 0.61000049 1.097128e-38
0.43494806 -0.61497176 0.61000049 1.097128e-38
0.44495061 -0.61486667 0.61008292 1.097128e-38
0.45331699 -0.61495411 0.61000037 1.097128e-38
0.32621154 -0.60442513 0.61000043 1.097128e-38
0.33502933 -0.60499632 0.61000049 1.097128e-38
0.34536648 -0.60505253 0.61000049 1.097128e-38
0.35512146 -0.60509074 0.61000049 1.097128e-38
0.36511841 -0.60502988 0.61000049 1.097128e-38
0.37533376 -0.60507077 0.61000043 1.097128e-38
0.38496694 -0.6050247 0.61000049 1.097128e-38
0.39471504 -0.60501552 0.61000049 1.097128e-38
0.40464765 -0.6048916 0.61000043 1.097128e-38
0.41493785 -0.60495335 0.61000049 1.097128e-38
0.42531562 -0.6048888 0.61000043 1.097128e-38
0.43502998 -0.60487294 0.61000049 1.097128e-38
0.44493455 -0.60498607 0.61000043 1.097128e-38
0.4533172 -0.60495365 0.61000031 1.097128e-38
0.31863806 -0.59268564 0.61000019 1.097128e-38
0.32489017 -0.59507525 0.61000049 1.097128e-38
0.33501709 -0.59489787 0.61000049 1.097128e-38
0.34531093 -0.5950886 0.61000049 1.097128e-38
0.3550652 -0.5950346 0.61000049 1.097128e-38
0.3651464 -0.59487951 0.61000049 1.097128e-38
0.37533379 -0.59502774 0.61000043 1.097128e-38
0.38496691 -0.59489191 0.61000049 1.097128e-38
0.3948102 -0.59499764 0.61000049 1.097128e-38
0.40488023 -0.59507358 0.61000049 1.097128e-38
0.41490373 -0.59496582 0.61000049 1.097128e-38
0.42529517 -0.59500372 0.61000049 1.097128e-38
0.43507323 -0.59481299 0.61016595 1.097128e-38
0.44493476 -0.59505814 0.61000043 1.097128e-38
0.45331699 -0.59495312 0.61000037 1.097128e-38
0.31672421 -0.58429748 0.61000043 1.097128e-38
0.32494193 -0.58501405 0.61000049 1.097128e-38
0.33502916 -0.58497107 0.61000049 1.097128e-38
0.34531173 -0.58502686 0.61000049 1.097128e-38
0.35520658 -0.58498031 0.61000049 1.097128e-38
0.36514652 -0.58493149 0.61000049 1.097128e-38
0.37533388 -0.58498472 0.61000049 1.097128e-38
0.38494879 -0.58487827 0.61000049 1.097128e-38
0.39474678 -0.5849815 0.61000049 1.097128e-38
0.40470728 -0.58512294 0.61000043 1.097128e-38
0.41487062 -0.58497936 0.61000049 1.097128e-38
0.42517442 -0.5849936 0.61000043 1.097128e-38
0.4349893 -0.58493984 0.61000049 1.097128e-38
0.44491297 -0.58500147 0.61000049 1.097128e-38
0.45331717 -0.58495265 0.61000037 1.097128e-38
0.30832842 -0.5723812 0.61000019 1.097128e-38
0.31502497 -0.57494801 0.61000049 1.097128e-38
0.32491598 -0.57495236 0.61000049 1.097128e-38
0.33504093 -0.57504386 0.61000049 1.097128e-38
0.34533858 -0.5749647 0.61000049 1.097128e-38
0.35514984 -0.57502425 0.61000049 1.097128e-38
0.36514652 -0.5749833 0.61000049 1.097128e-38
0.37527272 -0.57504457 0.61000049 1.097128e-38
0.38487571 -0.57498866 0.61000049 1.097128e-38
0.39468291 -0.57496697 0.61000049 1.097128e-38
0.40482065 -0.57504696 0.61000043 1.097128e-38
0.41507185 -0.57499176 0.61000049 1.097128e-38
0.42535698 -0.57511705 0.61000049 1.097128e-38
0.4349671 -0.57496452 0.61000049 1.097128e-38
0.44489321 -0.57495177 0.61000049 1.097128e-38
0.45331702 -0.57495219 0.61000037 1.097128e-38
0.30659342 -0.56438309 0.61000043 1.097128e-38
0.31501356 -0.56504154 0.61000049 1.097128e-38
0.32489026 -0.56498873 0.61000043 1.097128e-38
0.33499476 -0.56503159 0.61000049 1.097128e-38
0.34528324 -0.56500292 0.61000049 1.097128e-38
0.35514963 -0.5650686 0.61000049 1.097128e-38
0.36514634 -0.56503522 0.61000049 1.1063476e-38
0.3753337 -0.56510413 0.61000043 1.1063476e-38
0.38496691 -0.56497693 0.61000049 1.1063476e-38
0.39484179 -0.56495035 0.61000049 1.1063476e-38
0.40474516 -0.56497645 0.61000049 1.1063476e-38
0.41480315 -0.56500685 0.61000049 1.1063476e-38
0.42535391 -0.56510144 0.61000049 1.1063476e-38
0.43509293 -0.56512958 0.61000049 1.1063476e-38
0.44487053 -0.56488979 0.61000049 1.1063476e-38
0.45331734 -0.56495154 0.61000037 1.1063476e-38
0.28718987 -0.55701572 0.6131267 4.6162639e-39
0.29470345 -0.5565151 0.61235797 5.9055622e-39
0.30454704 -0.55501181 0.6101501 1.0695053e-38
0.31496966 -0.55505347 0.61000049 1.1063476e-38
0.32486373 -0.55502611 0.61000049 1.1063476e-38
0.33505598 -0.55501574 0.61002272 1.1063476e-38
0.3454223 -0.55503744 0.61000049 1.1063476e-38
0.35509327 -0.55501419 0.61000049 1.1063476e-38
0.36514625 -0.55498564 0.61000049 1.1063476e-38
0.37533379 -0.5550611 0.61000043 1.1063476e-38
0.38505805 -0.55496252 0.61000049 1.1063476e-38
0.3947137 -0.55504125 0.61000049 1.1063476e-38
0.40466923 -0.55490804 0.61000043 1.1063476e-38
0.41500494 -0.55501688 0.61000049 1.1063476e-38
0.42517456 -0.55497217 0.61000049 1.1063476e-38
0.43508995 -0.55502748 0.61000049 1.1063476e-38
0.44499868 -0.55496794 0.61000043 1.1063476e-38
0.45328316 -0.55514973 0.61000037 1.1063476e-38
0.28754896 -0.5449326 0.61000037 1.1063476e-38
0.29443413 -0.54498559 0.61000049 1.1063476e-38
0.30465636 -0.54490066 0.61000049 1.1063476e-38
0.31496921 -0.54506826 0.61000049 1.1063476e-38
0.32499319 -0.54496038 0.61000049 1.1063476e-38
0.3349694 -0.54500908 0.61000049 1.1063476e-38
0.34533855 -0.54497653 0.61000049 1.1063476e-38
0.35514981 -0.54505759 0.61000049 1.1063476e-38
0.36514649 -0.544936 0.61000049 1.1063476e-38
0.37526843 -0.54493654 0.61014265 1.1063476e-38
0.38498533 -0.54507285 0.61000049 1.1063476e-38
0.3947784 -0.54502457 0.61000049 1.1063476e-38
0.40482372 -0.54508269 0.61000049 1.1063476e-38
0.41487178 -0.54492682 0.61000049 1.1063476e-38
0.42535704 -0.54509068 0.61000043 1.1063476e-38
0.43490735 -0.54481232 0.61000049 1.1063476e-38
0.44487059 -0.545035 0.61000049 1.1063476e-38
0.45334843 -0.54513693 0.61000037 1.1063476e-38
0.28760293 -0.53482145 0.61000037 1.1063476e-38
0.29451784 -0.53503549 0.61000049 1.1063476e-38
0.3046456 -0.5349279 0.61000049 1.1063476e-38
0.31495902 -0.53499103 0.61000049 1.1063476e-38
0.32483628 -0.53500247 0.61000043 1.1063476e-38
0.33506352 -0.53499103 0.61000049 1.1063476e-38
0.3452557 -0.53491807 0.61000043 1.1063476e-38
0.35514987 -0.53520262 0.61000049 1.1063476e-38
0.36508885 -0.53488898 0.61000049 1.1063476e-38
0.3753337 -0.53497493 0.61000049 1.1063476e-38
0.38491234 -0.53518516 0.61000049 1.1063476e-38
0.39487335 -0.53490049 0.61000049 1.1063476e-38
0.40467396 -0.53510904 0.61013919 1.1063476e-38
0.41493744 -0.53504425 0.61000049 1.1063476e-38
0.42529514 -0.53495479 0.61000043 1.1063476e-38
0.43509302 -0.53484386 0.61000049 1.1063476e-38
0.44499868 -0.53511101 0.61000049 1.1063476e-38
0.45328322 -0.53514934 0.61000031 1.1063476e-38
0.28760287 -0.52493709 0.61000025 1.1063476e-38
0.2944341 -0.52508026 0.61000049 1.1063476e-38
0.30460238 -0.52504283 0.61000049 1.1063476e-38
0.31504634 -0.52483529 0.61000049 1.1063476e-38
0.32491615 -0.52503562 0.61000049 1.1063476e-38
0.3349458 -0.52498472 0.61000049 1.1063476e-38
0.34533882 -0.52505171 0.61000049 1.1063476e-38
0.35526097 -0.52514052 0.61000049 1.1063476e-38
0.36514652 -0.52483732 0.61000049 1.1063476e-38
0.37533391 -0.52493197 0.61000049 1.1063476e-38
0.38496694 -0.5251689 0.61000049 1.1063476e-38
0.3946791 -0.52510214 0.61000049 1.1063476e-38
0.40482074 -0.52493179 0.61000043 1.1063476e-38
0.41493759 -0.52505714 0.61000049 1.1063476e-38
0.42523322 -0.52482063 0.61000043 1.1063476e-38
0.43496725 -0.52499878 0.61000043 1.1063476e-38
0.44487062 -0.52518016 0.61000049 1.1063476e-38
0.4532522 -0.52533352 0.61000031 1.1063476e-38
0.28760293 -0.51505274 0.61000025 1.1063476e-38
0.29451796 -0.51512867 0.61000049 1.1063476e-38
0.30460203 -0.51515949 0.61000049 1.1063476e-38
0.31500265 -0.51501471 0.61000049 1.1063476e-38
0.32499644 -0.51506621 0.61000043 1.1063476e-38
0.33507448 -0.51488346 0.61000049 1.1063476e-38
0.34533867 -0.51498944 0.61000049 1.1063476e-38
0.35503891 -0.51489568 0.61000049 1.1063476e-38
0.36514637 -0.51488918 0.61000049 1.1063476e-38
0.37533388 -0.514889 0.61000043 1.1063476e-38
0.38496703 -0.51503611 0.61000049 1.1063476e-38
0.39477843 -0.51518655 0.61000049 1.1063476e-38
0.40464774 -0.51499313 0.61000043 1.1063476e-38
0.41493773 -0.51496375 0.61000049 1.1063476e-38
0.42535689 -0.5150643 0.61000043 1.1063476e-38
0.43509308 -0.51515836 0.61000049 1.1063476e-38
0.44499868 -0.5152539 0.61000049 1.1063476e-38
0.45338213 -0.51533478 0.61000031 1.1063476e-38
0.28760287 -0.5051682 0.61000025 1.1063476e-38
0.2944341 -0.50517499 0.61000049 1.1063476e-38
0.30459204 -0.50518525 0.61000049 1.1063476e-38
0.31495896 -0.50519556 0.61000049 1.1063476e-38
0.32483917 -0.50511301 0.61000049 1.1063476e-38
0.33502916 -0.50487012 0.61000049 1.1063476e-38
0.34533879 -0.50492698 0.61000043 1.1063476e-38
0.35514992 -0.50483352 0.61000049 1.1063476e-38
0.3651464 -0.50494105 0.61000049 1.1063476e-38
0.37533379 -0.50484598 0.61000043 1.1063476e-38
0.384967 -0.50490332 0.61000049 1.1063476e-38
0.3947784 -0.50496227 0.61000049 1.1063476e-38
0.40476394 -0.50491703 0.61000043 1.1063476e-38
0.41493759 -0.50487041 0.61000049 1.1063476e-38
0.42529523 -0.5049302 0.61000043 1.1063476e-38
0.43503007 -0.50493664 0.61000043 1.1063476e-38
0.44487062 -0.5053252 0.61000049 1.1063476e-38
0.45325217 -0.50533366 0.61000031 1.1063476e-38
0.2876029 -0.49506417 0.61000031 1.1063476e-38
0.29451799 -0.4952217 0.61000043 1.1063476e-38
0.30467743 -0.49513042 0.61000049 1.1063476e-38
0.31504634 -0.49503723 0.61000049 1.1063476e-38
0.32491606 -0.49494845 0.61000049 1.1063476e-38
0.3349252 -0.49494073 0.61000049 1.1063476e-38
0.34533882 -0.49516344 0.61000043 1.1155671e-38
0.35514984 -0.49497846 0.61000043 1.1155671e-38
0.36514655 -0.49499297 0.61000049 1.1155671e-38
0.37533376 -0.49480286 0.61000049 1.1155671e-38
0.38496703 -0.4947705 0.61000043 1.1155671e-38
0.3947787 -0.49505097 0.61000049 1.1155671e-38
0.40482366 -0.49496734 0.61000049 1.1155671e-38
0.41493729 -0.49488321 0.61000049 1.1155671e-38
0.4252333 -0.49479765 0.61000043 1.1155671e-38
0.43496713 -0.49471664 0.61000043 1.1155671e-38
0.4449347 -0.49501577 0.61000043 1.1155671e-38
0.45338213 -0.49533269 0.61000031 1.1155671e-38
0.28760296 -0.48474047 0.61000025 1.1063476e-38
0.29438329 -0.48518401 0.61000049 1.1063476e-38
0.30459198 -0.48507711 0.61000049 1.1063476e-38
0.31495899 -0.48488054 0.61000049 1.1063476e-38
0.32491627 -0.48508224 0.61000037 1.1063476e-38
0.33508897 -0.48493516 0.61000049 1.1063476e-38
0.34533894 -0.4850015 0.61000049 1.1155671e-38
0.35514981 -0.48512349 0.61000043 1.1155671e-38
0.36514652 -0.48504496 0.61000043 1.1155671e-38
0.37533391 -0.48475981 0.61000049 1.1155671e-38
0.38490942 -0.48500082 0.61000043 1.1155671e-38
0.39477849 -0.4851397 0.61000049 1.1155671e-38
0.40476394 -0.48501888 0.61000049 1.1155671e-38
0.41487181 -0.4849993 0.61000049 1.1155671e-38
0.42535707 -0.48503807 0.61000049 1.1155671e-38
0.43509308 -0.48487276 0.61000043 1.1155671e-38
0.44499871 -0.48470464 0.61000049 1.1155671e-38
0.45325226 -0.48533377 0.61000031 1.1155671e-38
0.28760287 -0.47485608 0.61000019 1.1063476e-38
0.29446587 -0.47506696 0.61000049 1.1063476e-38
0.30467758 -0.47502068 0.61000049 1.1063476e-38
0.31493485 -0.47488761 0.61000049 1.1063476e-38
0.32491636 -0.47511843 0.61000049 1.1063476e-38
0.33495858 -0.47500151 0.61000049 1.1063476e-38
0.34533879 -0.47483945 0.61000049 1.1155671e-38
0.35508952 -0.47501785 0.61005127 1.1155671e-38
0.3651216 -0.47516739 0.61011565 1.1155671e-38
0.37524185 -0.47481576 0.61000043 1.1155671e-38
0.38496694 -0.47522917 0.61000043 1.1155671e-38
0.39477834 -0.47491553 0.61000049 1.1155671e-38
0.40470442 -0.47507188 0.61000043 1.1155671e-38
0.41506931 -0.47481629 0.61003762 1.1063476e-38
0.42519695 -0.47502744 0.61000049 1.1155671e-38
0.43496728 -0.47503319 0.61000043 1.1155671e-38
0.44487059 -0.47477937 0.61000049 1.1155671e-38
0.45328602 -0.47513402 0.61000031 1.1155671e-38
0.28760293 -0.46497172 0.61000025 1.1063476e-38
0.29447591 -0.46503207 0.61000049 1.1063476e-38
0.30459198 -0.46496907 0.61000049 1.1063476e-38
0.3150363 -0.46498781 0.61000049 1.1063476e-38
0.32486373 -0.46495751 0.61000043 1.1063476e-38
0.33514664 -0.4649941 0.61000049 1.1063476e-38
0.34528333 -0.46497476 0.61000043 1.1155671e-38
0.35520646 -0.46491313 0.61000043 1.1155671e-38
0.36514655 -0.46514878 0.61000049 1.1155671e-38
0.37533382 -0.4648796 0.61000043 1.1155671e-38
0.38496694 -0.46509632 0.61000043 1.1155671e-38
0.39459798 -0.46495077 0.61003655 1.1063476e-38
0.40476394 -0.46512172 0.61000043 1.1155671e-38
0.41483465 -0.46502534 0.61000049 1.1155671e-38
0.42533559 -0.46490279 0.61000043 1.1155671e-38
0.4349893 -0.46505865 0.61000043 1.1155671e-38
0.44499868 -0.46484756 0.61000043 1.1155671e-38
0.45335084 -0.4651463 0.61000031 1.1155671e-38
0.28760287 -0.45508727 0.61000025 1.1063476e-38
0.29448631 -0.45499679 0.61000037 1.1063476e-38
0.30460206 -0.45499441 0.61000049 1.1063476e-38
0.31503579 -0.45500135 0.61000043 1.1063476e-38
0.32489026 -0.45499521 0.61000037 1.1063476e-38
0.33491185 -0.45497951 0.61000043 1.1063476e-38
0.3453387 -0.45501414 0.61000043 1.1155671e-38
0.35514992 -0.45495543 0.61000031 1.1155671e-38
0.36506024 -0.45509735 0.61000043 1.1155671e-38
0.37530342 -0.4549385 0.61000043 1.1155671e-38
0.38496694 -0.45496359 0.61000043 1.1155671e-38
0.3949078 -0.45509666 0.61000043 1.1155671e-38
0.40470728 -0.45492411 0.61000043 1.1155671e-38
0.41503623 -0.4550437 0.61000049 1.1155671e-38
0.42535704 -0.4550117 0.61000043 1.1155671e-38
0.4350298 -0.45496911 0.61000043 1.1155671e-38
0.44487062 -0.45492464 0.61000049 1.1155671e-38
0.45458958 -0.45474181 0.61000031 1.1063476e-38
0.46526995 -0.45366067 0.61000019 1.097128e-38
0.47483176 -0.45363817 0.61000025 1.097128e-38
0.48455498 -0.45369142 0.61006147 1.097128e-38
0.49524462 -0.45355886 0.61000031 1.097128e-38
0.50532365 -0.45360869 0.61000025 1.097128e-38
0.51470536 -0.4535464 0.61000025 1.097128e-38
0.52521604 -0.45366544 0.61000013 1.097128e-38
0.53567255 -0.45349827 0.61000019 1.097128e-38
0.54563117 -0.45360532 0.61000025 1.097128e-38
0.55536973 -0.453529 0.61000037 1.097128e-38
0.56545603 -0.4536292 0.61000007 1.097128e-38
0.57551712 -0.45372352 0.61000007 1.097128e-38
0.58506912 -0.45361876 0.61000013 1.097128e-38
0.59477049 -0.45351276 0.61000007 1.097128e-38
0.60530406 -0.45360714 0.61000001 1.097128e-38
0.61530256 -0.45354056 0.61000019 1.097128e-38
0.62506694 -0.45372638 0.61000013 1.097128e-38
0.63517141 -0.45343104 0.61000007 1.097128e-38
0.64428556 -0.45398235 0.61000007 1.097128e-38
0.65469182 -0.4535037 0.61000001 1.1063476e-38
0.66525376 -0.45365632 0.61000001 1.1063476e-38
0.67478389 -0.45376214 0.61000007 1.1063476e-38
0.68444818 -0.45340833 0.61000007 1.1063476e-38
0.6944952 -0.45375314 0.61000007 1.1063476e-38
0.70418882 -0.45362106 0.61000007 1.1063476e-38
0.71401727 -0.45348835 0.61000007 1.1063476e-38
0.72458583 -0.4536171 0.61000007 1.1063476e-38
0.73487669 -0.45347551 0.61000013 1.1063476e-38
0.7455951 -0.4535788 0.61000013 1.1063476e-38
0.75498718 -0.45360395 0.61000013 1.1063476e-38
0.7641173 -0.45364812 0.61000007 1.1063476e-38
0.77536982 -0.45352197 0.61000013 1.1063476e-38
0.78515339 -0.45354727 0.61000007 1.1063476e-38
0.79466665 -0.45359191 0.61000001 1.1063476e-38
0.8047474 -0.453518 0.61000013 1.1063476e-38
0.81497282 -0.45344442 0.61000007 1.1063476e-38
0.82513303 -0.45384949 0.61000007 1.1063476e-38
0.8340404 -0.45355606 0.61000013 1.1063476e-38
0.8444497 -0.45345137 0.61000013 1.1063476e-38
0.85523182 -0.45389462 0.61000007 1.1063476e-38
0.86414784 -0.45383897 0.61000007 1.1063476e-38
0.28760296 -0.44520283 0.61000013 1.1063476e-38
0.29449672 -0.44495869 0.61000043 1.1063476e-38
0.30461365 -0.44502792 0.61000049 1.1063476e-38
0.31496921 -0.44500747 0.61000049 1.1063476e-38
0.32492006 -0.44504854 0.61002731 1.097128e-38
0.33509952 -0.44496939 0.61000049 1.1063476e-38
0.34539437 -0.445052 0.61000043 1.1155671e-38
0.35506517 -0.44499901 0.61000037 1.1155671e-38
0.36514655 -0.4450503 0.61000031 1.1155671e-38
0.37536469 -0.44506204 0.61002159 1.1063476e-38
0.38491234 -0.4449487 0.61000037 1.1155671e-38
0.3947784 -0.44507736 0.61000043 1.1155671e-38
0.40488023 -0.44497839 0.61000043 1.1155671e-38
0.41487056 -0.44494694 0.61000049 1.1155671e-38
0.42517442 -0.44513163 0.61000043 1.1155671e-38
0.43507147 -0.44487858 0.61000043 1.1155671e-38
0.44499871 -0.44499049 0.61000043 1.1155671e-38
0.45505774 -0.44512081 0.61000037 1.1063476e-38
0.46524879 -0.44498292 0.61000019 1.097128e-38
0.47483143 -0.44501865 0.61000037 1.097128e-38
0.48455581 -0.44492576 0.61000037 1.097128e-38
0.49527183 -0.44504774 0.61000037 1.097128e-38
0.50552279 -0.44493401 0.61000037 1.097128e-38
0.514705 -0.44495907 0.61000031 1.097128e-38
0.52502441 -0.44521275 0.61000043 1.097128e-38
0.53567231 -0.44476289 0.61000031 1.097128e-38
0.54544336 -0.44512457 0.61000019 1.097128e-38
0.55537009 -0.44482213 0.61000037 1.097128e-38
0.56545609 -0.44519007 0.61000001 1.097128e-38
0.57570523 -0.44505462 0.61000001 1.097128e-38
0.58506912 -0.44504902 0.61000037 1.097128e-38
0.59442484 -0.44486618 0.61000019 1.097128e-38
0.60515463 -0.44507208 0.61000007 1.097128e-38
0.61500877 -0.44498891 0.61000001 1.097128e-38
0.62491304 -0.44506234 0.61000007 1.097128e-38
0.63506848 -0.44497785 0.61000007 1.097128e-38
0.64428562 -0.44501838 0.61000007 1.097128e-38
0.65469134 -0.44501251 0.61000019 1.097128e-38
0.66525406 -0.44500801 0.61000007 1.1063476e-38
0.67489302 -0.44504851 0.61000007 1.1063476e-38
0.68439001 -0.44486108 0.61000013 1.1063476e-38
0.6941365 -0.44515181 0.61000001 1.1063476e-38
0.70401037 -0.44495758 0.61000013 1.1063476e-38
0.71445304 -0.44501182 0.61000013 1.1063476e-38
0.72443819 -0.44504753 0.61000025 1.1063476e-38
0.73487669 -0.44486529 0.61000013 1.1063476e-38
0.74528521 -0.44491708 0.61000001 1.1063476e-38
0.75474322 -0.44517648 0.61000001 1.1063476e-38
0.76427239 -0.44488421 0.60999995 1.1063476e-38
0.77517259 -0.44516841 0.61000001 1.1063476e-38
0.78472841 -0.44465357 0.61051393 1.1063476e-38
0.79476082 -0.44488564 0.60999995 1.1063476e-38
0.8047477 -0.44515795 0.61000007 1.1063476e-38
0.81479901 -0.4448359 0.61000001 1.1063476e-38
0.82513338 -0.44537646 0.61000001 1.1063476e-38
0.83403999 -0.44469255 0.61000007 1.1063476e-38
0.84464657 -0.44524017 0.61000001 1.1063476e-38
0.85523152 -0.44490892 0.61000007 1.1063476e-38
0.86293972 -0.44478875 0.61000007 1.1063476e-38
0.28760287 -0.4353185 0.61000001 1.1063476e-38
0.29444423 -0.43509066 0.61000049 1.1063476e-38
0.30463475 -0.43513992 0.61000049 1.1063476e-38
0.3150031 -0.43510598 0.61000049 1.1063476e-38
0.32499653 -0.43516582 0.61000043 1.1063476e-38
0.33496958 -0.43504044 0.61000043 1.1063476e-38
0.34522998 -0.43498841 0.61000037 1.1063476e-38
0.35512149 -0.43494466 0.61000037 1.1063476e-38
0.36511761 -0.43500069 0.61000037 1.1063476e-38
0.3753337 -0.43495572 0.61000043 1.1063476e-38
0.38496709 -0.43493962 0.61000037 1.1063476e-38
0.39471492 -0.43495741 0.61000043 1.1063476e-38
0.40466931 -0.43502948 0.61000043 1.1063476e-38
0.41490388 -0.43496108 0.61000031 1.1063476e-38
0.42535406 -0.43500096 0.61000043 1.1063476e-38
0.43509316 -0.43490157 0.61000043 1.1063476e-38
0.44487053 -0.43506974 0.61000043 1.1063476e-38
0.45497125 -0.43509728 0.61000025 1.1063476e-38
0.4652704 -0.43500748 0.61000013 1.097128e-38
0.47472203 -0.43498579 0.61000043 1.097128e-38
0.48460203 -0.43492213 0.61000031 1.097128e-38
0.49548882 -0.4350841 0.61000019 1.097128e-38
0.50540739 -0.43496016 0.61000031 1.097128e-38
0.51450181 -0.43494168 0.61018199 1.097128e-38
0.52512735 -0.43513808 0.61000037 1.097128e-38
0.53567219 -0.43487373 0.61000037 1.097128e-38
0.54544336 -0.43515736 0.61000001 1.097128e-38
0.55530113 -0.43494138 0.61000043 1.097128e-38
0.56545597 -0.43506306 0.61000007 1.097128e-38
0.57584709 -0.43518943 0.61000019 1.097128e-38
0.5850237 -0.43497297 0.60999995 1.097128e-38
0.59483939 -0.43495446 0.61003929 1.097128e-38
0.60530418 -0.43498081 0.61000013 1.097128e-38
0.61510873 -0.43489978 0.61000007 1.097128e-38
0.62522614 -0.43499896 0.61000019 1.097128e-38
0.63512236 -0.43495053 0.61000001 1.097128e-38
0.64438987 -0.43470412 0.61000007 1.097128e-38
0.65469187 -0.43507603 0.61000019 1.097128e-38
0.66525334 -0.43499413 0.6099999 1.097128e-38
0.67467493 -0.43497506 0.61000001 1.097128e-38
0.68444848 -0.43494627 0.61000025 1.1063476e-38
0.69436079 -0.43491542 0.61000007 1.1063476e-38
0.70431381 -0.43524015 0.61001801 1.1063476e-38
0.71415615 -0.43487665 0.61000001 1.1063476e-38
0.72468388 -0.43508556 0.60999995 1.1063476e-38
0.73475456 -0.43524954 0.61001611 1.1063476e-38
0.74540579 -0.43479371 0.60999995 1.1063476e-38
0.75457549 -0.43514234 0.61000013 1.1063476e-38
0.76420784 -0.43486881 0.60999995 1.1063476e-38
0.77497554 -0.43508548 0.60999995 1.1063476e-38
0.78489912 -0.43504542 0.61000007 1.1063476e-38
0.79476076 -0.43492007 0.61000013 1.1063476e-38
0.8047477 -0.43512595 0.61000001 1.1063476e-38
0.81487548 -0.43499947 0.61000001 1.1063476e-38
0.82513338 -0.43520868 0.61000001 1.1063476e-38
0.83382672 -0.43479246 0.61000013 1.1063476e-38
0.84456664 -0.43518972 0.61000013 1.1063476e-38
0.85482728 -0.43483678 0.61065179 1.1063476e-38
0.86276758 -0.43489844 0.61000007 1.1063476e-38
0.33505231 -0.42511296 0.61000049 1.097128e-38
0.34536657 -0.42492685 0.61000043 1.097128e-38
0.35514995 -0.42498949 0.61000031 1.097128e-38
0.36514655 -0.42495143 0.61000043 1.097128e-38
0.37533388 -0.42491266 0.61000043 1.097128e-38
0.38498542 -0.4249261 0.61000043 1.097128e-38
0.39477864 -0.42494249 0.61000043 1.097128e-38
0.40480289 -0.42508429 0.61000043 1.097128e-38
0.414938 -0.42497423 0.61000037 1.097128e-38
0.42525506 -0.42486158 0.61000043 1.097128e-38
0.43496734 -0.42506751 0.61000043 1.097128e-38
0.44489327 -0.42500758 0.61000025 1.097128e-38
0.45499131 -0.42495933 0.61000037 1.097128e-38
0.46529299 -0.42503142 0.61000013 1.097128e-38
0.47488639 -0.42496061 0.61000037 1.097128e-38
0.484483 -0.42503998 0.61000031 1.097128e-38
0.4952023 -0.42498946 0.61000025 1.097128e-38
0.50540721 -0.42499125 0.61000037 1.097128e-38
0.51476532 -0.42503139 0.61000031 1.097128e-38
0.52523077 -0.42506093 0.61000031 1.097128e-38
0.53567225 -0.42498478 0.61000031 1.097128e-38
0.54542649 -0.42490101 0.61028278 1.097128e-38
0.55537015 -0.42506468 0.61000001 1.097128e-38
0.56545597 -0.42493609 0.61000025 1.097128e-38
0.57570487 -0.42514613 0.61000025 1.097128e-38
0.58534187 -0.4249731 0.61037153 1.097128e-38
0.59450364 -0.42501381 0.61000001 1.097128e-38
0.60545295 -0.42488608 0.61000007 1.097128e-38
0.61520851 -0.42480814 0.60999995 1.097128e-38
0.62506717 -0.42509785 0.61000019 1.097128e-38
0.63517106 -0.42494166 0.61000007 1.097128e-38
0.64418119 -0.42485532 0.61000025 1.097128e-38
0.65452528 -0.42495629 0.61000019 1.097128e-38
0.66525412 -0.42498028 0.61000007 1.097128e-38
0.67489296 -0.42487964 0.6099999 1.097128e-38
0.68425578 -0.42545927 0.61000001 1.097128e-38
0.69202882 -0.42816362 0.61000001 1.1063476e-38
0.71681172 -0.42703035 0.61000007 1.1063476e-38
0.7243827 -0.42487925 0.6099999 1.1063476e-38
0.73506355 -0.42501482 0.61000001 1.1063476e-38
0.74523741 -0.42524973 0.61018962 1.1063476e-38
0.75491118 -0.42481983 0.61000007 1.1063476e-38
0.76420772 -0.42510667 0.60999995 1.1063476e-38
0.77523822 -0.42476964 0.61000001 1.1063476e-38
0.78489918 -0.42514548 0.61000007 1.1063476e-38
0.79476082 -0.42495456 0.60999995 1.1063476e-38
0.80474776 -0.42509392 0.61000007 1.1063476e-38
0.81487542 -0.42490005 0.61000013 1.1063476e-38
0.82513338 -0.42504087 0.61000001 1.1063476e-38
0.83425331 -0.4252753 0.61000013 1.1063476e-38
0.84432733 -0.42509517 0.61000001 1.1063476e-38
0.85545063 -0.42522377 0.61000007 1.1063476e-38
0.86293972 -0.42499295 0.61000007 1.1063476e-38
0.33499491 -0.41501734 0.61000049 1.097128e-38
0.3454223 -0.41496265 0.61000031 1.097128e-38
0.35517818 -0.41503346 0.61000031 1.097128e-38
0.36514655 -0.41500333 0.61000043 1.097128e-38
0.37536454 -0.41497162 0.61000043 1.097128e-38
0.384967 -0.41491514 0.61000037 1.097128e-38
0.39474577 -0.41503176 0.61000043 1.097128e-38
0.40473709 -0.41499102 0.61016715 1.097128e-38
0.41497105 -0.41498658 0.61000025 1.097128e-38
0.42527434 -0.41498384 0.61000037 1.097128e-38
0.43498951 -0.41509199 0.61000043 1.097128e-38
0.44491309 -0.41495773 0.61000025 1.097128e-38
0.45503518 -0.41494095 0.61000043 1.097128e-38
0.46531561 -0.41506159 0.61000013 1.097128e-38
0.47477683 -0.41492867 0.61000037 1.097128e-38
0.48457846 -0.41503328 0.61000043 1.097128e-38
0.49549952 -0.41510507 0.61021441 1.097128e-38
0.50528854 -0.41486046 0.61000037 1.097128e-38
0.51458436 -0.41498297 0.61000025 1.097128e-38
0.52497321 -0.41498691 0.61000037 1.097128e-38
0.53567225 -0.41509566 0.61000019 1.097128e-38
0.54544342 -0.41489136 0.61000019 1.097128e-38
0.55537021 -0.41501826 0.61000001 1.097128e-38
0.56538594 -0.41497719 0.61000013 1.097128e-38
0.57570493 -0.41493723 0.61000019 1.097128e-38
0.58506912 -0.41505435 0.6099999 1.097128e-38
0.59465045 -0.41500193 0.61000013 1.097128e-38
0.6053043 -0.41495946 0.61000001 1.097128e-38
0.61500895 -0.41517428 0.6099999 1.097128e-38
0.62491304 -0.41502354 0.61000013 1.097128e-38
0.63522077 -0.41493183 0.60999995 1.097128e-38
0.64438993 -0.41498202 0.61000001 1.097128e-38
0.65486437 -0.41502509 0.61000007 1.097128e-38
0.6652534 -0.4149664 0.6099999 1.097128e-38
0.67395389 -0.4166899 0.61000007 1.097128e-38
0.68201512 -0.41940171 0.61000007 1.097128e-38
0.72618264 -0.41534239 0.61000007 1.1063476e-38
0.73469025 -0.41496855 0.61000001 1.1063476e-38
0.74534237 -0.41527131 0.60999995 1.1063476e-38
0.75474328 -0.41478571 0.61000007 1.1063476e-38
0.76414269 -0.41509289 0.60999995 1.1063476e-38
0.77517265 -0.41468024 0.61000025 1.1063476e-38
0.784899 -0.41524556 0.61000001 1.1063476e-38
0.79476082 -0.41498899 0.61000001 1.1063476e-38
0.80474776 -0.41506186 0.61000007 1.1063476e-38
0.81487542 -0.41480058 0.61000001 1.1063476e-38
0.8251335 -0.41487315 0.61000001 1.1063476e-38
0.83403999 -0.41537508 0.61000007 1.1063476e-38
0.84283507 -0.41484293 0.61000007 1.1063476e-38
0.85501224 -0.41547164 0.61000007 1.1063476e-38
0.86311197 -0.41508415 0.61000007 1.1063476e-38
0.33509666 -0.40503085 0.61008632 1.0879084e-38
0.34528333 -0.40500203 0.61000037 1.097128e-38
0.35514992 -0.40507817 0.61000031 1.097128e-38
0.36514664 -0.40505522 0.61000037 1.097128e-38
0.37533382 -0.40503129 0.61000043 1.097128e-38
0.38496661 -0.40502352 0.61000031 1.097128e-38
0.39474687 -0.40512109 0.61000031 1.097128e-38
0.40472537 -0.40493488 0.61000043 1.097128e-38
0.41490319 -0.40510684 0.61000031 1.097128e-38
0.42529517 -0.40509921 0.61000037 1.097128e-38
0.43510529 -0.40495846 0.61013633 1.097128e-38
0.44493479 -0.40490094 0.61000025 1.097128e-38
0.4549914 -0.40492928 0.61000037 1.097128e-38
0.4652276 -0.40495148 0.61000013 1.097128e-38
0.47494113 -0.40489975 0.61000037 1.097128e-38
0.48460197 -0.40489855 0.61000031 1.097128e-38
0.49529758 -0.4050529 0.61000031 1.097128e-38
0.50540721 -0.40489358 0.61000007 1.097128e-38
0.51470482 -0.40493935 0.61000031 1.097128e-38
0.52507597 -0.40491056 0.61000013 1.097128e-38
0.53560966 -0.40504161 0.61000031 1.097128e-38
0.54544342 -0.40492421 0.61000019 1.097128e-38
0.55537015 -0.40497181 0.61000007 1.097128e-38
0.56545585 -0.40502015 0.61000031 1.097128e-38
0.57563382 -0.40489843 0.61000013 1.097128e-38
0.58493221 -0.40498662 0.6099999 1.097128e-38
0.59442991 -0.40498635 0.61000001 1.097128e-38
0.60515469 -0.40503633 0.61000007 1.097128e-38
0.61510879 -0.4050827 0.60999995 1.097128e-38
0.62522614 -0.40495315 0.61000019 1.097128e-38
0.63527429 -0.40490112 0.6099999 1.097128e-38
0.64418137 -0.40513632 0.6099999 1.097128e-38
0.65369308 -0.40607256 0.61000007 1.097128e-38
0.66347921 -0.40849048 0.61000007 1.097128e-38
0.72785068 -0.40697831 0.61000007 1.1063476e-38
0.73493862 -0.40493062 0.61000013 1.1063476e-38
0.74559534 -0.40515819 0.60999995 1.1063476e-38
0.75474328 -0.40508649 0.61000007 1.1063476e-38
0.7644223 -0.40528509 0.60999995 1.1063476e-38
0.77413565 -0.40503815 0.61000001 1.1063476e-38
0.78489918 -0.40534565 0.61000001 1.1063476e-38
0.79476082 -0.40502343 0.60999995 1.1063476e-38
0.80474788 -0.40502974 0.61000001 1.1063476e-38
0.81510508 -0.4049511 0.61000001 1.1063476e-38
0.82513374 -0.40504435 0.61000007 1.1063476e-38
0.83404005 -0.40514809 0.61000007 1.1063476e-38
0.84326667 -0.40526444 0.61000007 1.1063476e-38
0.85522753 -0.40516481 0.61000001 1.1063476e-38
0.86293972 -0.40519506 0.61000007 1.1063476e-38
0.33502916 -0.39507678 0.61000049 1.0879084e-38
0.3453387 -0.39503834 0.61000031 1.0879084e-38
0.35517785 -0.39502105 0.61000037 1.0879084e-38
0.36514643 -0.39510715 0.61000043 1.097128e-38
0.37533382 -0.39498824 0.61000031 1.097128e-38
0.38496703 -0.39513201 0.61000031 1.097128e-38
0.39477855 -0.39500061 0.61000031 1.097128e-38
0.40476361 -0.39511174 0.61000043 1.097128e-38
0.41490504 -0.39512026 0.61000031 1.097128e-38
0.42531502 -0.3949638 0.61000043 1.097128e-38
0.43500954 -0.39503434 0.61000043 1.097128e-38
0.44493461 -0.39497295 0.61000043 1.097128e-38
0.45503527 -0.39491019 0.61000031 1.097128e-38
0.46531567 -0.39485288 0.61000013 1.097128e-38
0.47477502 -0.39502597 0.61000013 1.097128e-38
0.484483 -0.39501935 0.61000031 1.097128e-38
0.49534598 -0.39495769 0.61000019 1.097128e-38
0.50552666 -0.39492372 0.61000013 1.097128e-38
0.51482618 -0.39489287 0.61000025 1.097128e-38
0.5251019 -0.39496782 0.61000013 1.097128e-38
0.53567219 -0.39498833 0.61000001 1.097128e-38
0.54544342 -0.39495707 0.61000001 1.097128e-38
0.55537021 -0.39492533 0.61000007 1.097128e-38
0.56545597 -0.39489314 0.61000019 1.097128e-38
0.57570088 -0.39497623 0.61005694 1.097128e-38
0.58511496 -0.39513606 0.61000001 1.097128e-38
0.59457713 -0.39497331 0.61000013 1.097128e-38
0.6053043 -0.3949405 0.60999995 1.097128e-38
0.61506116 -0.39477295 0.6099999 1.097128e-38
0.62506717 -0.39505547 0.61000013 1.097128e-38
0.63483196 -0.39554411 0.60999995 1.097128e-38
0.64339298 -0.39792964 0.61000013 1.097128e-38
0.73600805 -0.39563614 0.61000001 1.1063476e-38
0.74521667 -0.39504355 0.60999995 1.1063476e-38
0.75474292 -0.39506406 0.61000001 1.1063476e-38
0.76573694 -0.39491317 0.61000001 1.1063476e-38
0.77379 -0.3949478 0.61000001 1.1063476e-38
0.78472441 -0.39510852 0.61000001 1.1063476e-38
0.79476082 -0.39505783 0.60999995 1.1063476e-38
0.80474788 -0.39499775 0.61000001 1.1063476e-38
0.81487542 -0.39510518 0.61000001 1.1063476e-38
0.82513344 -0.39521554 0.61000001 1.1063476e-38
0.83403993 -0.39492103 0.61000001 1.1063476e-38
0.84305102 -0.39530894 0.61000001 1.1063476e-38
0.85522759 -0.39583355 0.61000001 1.1063476e-38
0.86276758 -0.39530906 0.61000007 1.1063476e-38
0.33493549 -0.38506344 0.61000037 1.0879084e-38
0.34531179 -0.38497722 0.61000037 1.0879084e-38
0.35514992 -0.38496581 0.61000031 1.0879084e-38
0.36517513 -0.38505614 0.61000037 1.0879084e-38
0.37533388 -0.38494515 0.61000043 1.097128e-38
0.38494891 -0.38512185 0.61000043 1.097128e-38
0.39481041 -0.38487926 0.61000037 1.097128e-38
0.40474519 -0.38516504 0.61000043 1.097128e-38
0.41490409 -0.385023 0.61000037 1.097128e-38
0.42527422 -0.38495964 0.61000031 1.097128e-38
0.43494827 -0.38506031 0.61000031 1.097128e-38
0.4449347 -0.38504496 0.61000025 1.097128e-38
0.45499137 -0.38489929 0.61000037 1.097128e-38
0.46522498 -0.38500321 0.61000013 1.097128e-38
0.47477698 -0.38515353 0.61000025 1.097128e-38
0.48457855 -0.38501024 0.61000019 1.097128e-38
0.49532077 -0.3849946 0.61000037 1.097128e-38
0.50534773 -0.3849557 0.61000025 1.097128e-38
0.51464456 -0.384848 0.61000019 1.097128e-38
0.52517909 -0.38502645 0.61000037 1.097128e-38
0.53567225 -0.38509923 0.61000001 1.097128e-38
0.54544336 -0.38498989 0.61000007 1.097128e-38
0.55537021 -0.38487893 0.61000001 1.097128e-38
0.56552619 -0.38493377 0.61000025 1.097128e-38
0.5755623 -0.3851634 0.60999995 1.097128e-38
0.58506924 -0.38506094 0.61000007 1.097128e-38
0.59472334 -0.38495678 0.61000019 1.097128e-38
0.60538113 -0.38501629 0.60999995 1.097128e-38
0.61510843 -0.38491279 0.6099999 1.097128e-38
0.6242345 -0.38590559 0.61026102 1.097128e-38
0.6325323 -0.38881484 0.61000001 1.097128e-38
0.73748982 -0.38533458 0.61000007 1.097128e-38
0.74546874 -0.38492855 0.60999995 1.097128e-38
0.75474322 -0.38504151 0.61000007 1.1063476e-38
0.76556653 -0.38480797 0.61000001 1.1063476e-38
0.77379 -0.38512179 0.61000001 1.1063476e-38
0.78489912 -0.38488704 0.61000001 1.1063476e-38
0.79476082 -0.38509229 0.60999995 1.1063476e-38
0.80474788 -0.38496569 0.61000007 1.1063476e-38
0.81487542 -0.38500565 0.61000001 1.1063476e-38
0.82513344 -0.38504776 0.61000001 1.1063476e-38
0.83569843 -0.38490626 0.61000007 1.1063476e-38
0.84305102 -0.3850219 0.61000001 1.1063476e-38
0.85522759 -0.38546544 0.61000001 1.1063476e-38
0.86293972 -0.3853991 0.61000007 1.1063476e-38
0.33502898 -0.37505224 0.61000037 1.0879084e-38
0.34531099 -0.3749153 0.61000037 1.0879084e-38
0.35514972 -0.37501031 0.61000031 1.0879084e-38
0.36514655 -0.37500754 0.61000031 1.0879084e-38
0.37533379 -0.37490213 0.61000043 1.0879084e-38
0.384967 -0.37510774 0.61000025 1.0879084e-38
0.39481053 -0.37496737 0.61000025 1.097128e-38
0.40482065 -0.37509051 0.61000025 1.097128e-38
0.41503841 -0.37503836 0.61000019 1.097128e-38
0.42529526 -0.37507445 0.61000025 1.097128e-38
0.43511206 -0.37497297 0.61000025 1.097128e-38
0.44495577 -0.37498719 0.61000031 1.097128e-38
0.45503539 -0.37487945 0.61000025 1.097128e-38
0.46524858 -0.37503368 0.61000019 1.097128e-38
0.47494122 -0.37512046 0.61000031 1.097128e-38
0.4845311 -0.37500766 0.61000025 1.097128e-38
0.49534532 -0.37502664 0.61000019 1.097128e-38
0.50546682 -0.37498492 0.61000019 1.097128e-38
0.51470506 -0.37496394 0.61000031 1.097128e-38
0.52502453 -0.37495035 0.61000013 1.097128e-38
0.53573465 -0.37504378 0.61000019 1.097128e-38
0.5454433 -0.37502277 0.60999995 1.097128e-38
0.55537015 -0.37483245 0.60999995 1.097128e-38
0.56531549 -0.37514803 0.61000037 1.097128e-38
0.57570493 -0.3751238 0.60999995 1.097128e-38
0.58502376 -0.37498695 0.61000001 1.097128e-38
0.59450358 -0.37494519 0.61000019 1.097128e-38
0.60476297 -0.37584475 0.6099999 1.097128e-38
0.61445075 -0.37892488 0.61000001 1.097128e-38
0.73880118 -0.37515315 0.61000007 1.097128e-38
0.74540585 -0.37504411 0.60999995 1.097128e-38
0.75457543 -0.37501425 0.61000013 1.097128e-38
0.76556647 -0.37503672 0.61000001 1.1063476e-38
0.77378982 -0.37496826 0.61000001 1.1063476e-38
0.78466815 -0.37503797 0.61029339 1.1063476e-38
0.79482806 -0.37488335 0.60999995 1.1063476e-38
0.80474776 -0.37493366 0.61000001 1.1063476e-38
0.81464529 -0.37516573 0.61000001 1.1063476e-38
0.82513356 -0.37487999 0.61000001 1.1063476e-38
0.83553219 -0.37519357 0.61000007 1.1063476e-38
0.84305131 -0.37507778 0.61000007 1.1063476e-38
0.85522759 -0.37509736 0.61000001 1.1063476e-38
0.86293972 -0.37497973 0.61000007 1.1063476e-38
0.33512309 -0.36503848 0.61000037 1.0879084e-38
0.34533882 -0.36505088 0.61000043 1.0879084e-38
0.35506532 -0.36495575 0.61000025 1.0879084e-38
0.36514643 -0.36505949 0.61000043 1.0879084e-38
0.3752726 -0.3649613 0.61000037 1.0879084e-38
0.38502729 -0.36501721 0.6102199 1.0879084e-38
0.39477864 -0.36505762 0.61000031 1.0879084e-38
0.40481323 -0.36506668 0.61017817 1.0879084e-38
0.41490376 -0.3650533 0.61000019 1.097128e-38
0.42521483 -0.365064 0.61000043 1.097128e-38
0.43503028 -0.36487472 0.61000037 1.097128e-38
0.44491357 -0.36506417 0.61000025 1.097128e-38
0.45499137 -0.36486927 0.61000019 1.097128e-38
0.46527049 -0.36505699 0.61000013 1.097128e-38
0.47472546 -0.36493909 0.61000019 1.097128e-38
0.48455533 -0.36512938 0.61000019 1.097128e-38
0.49525011 -0.36492574 0.61000013 1.097128e-38
0.5052886 -0.36502075 0.61000031 1.097128e-38
0.51464647 -0.36492017 0.61000037 1.097128e-38
0.5251019 -0.36500916 0.61000007 1.097128e-38
0.53554732 -0.36482999 0.61000019 1.097128e-38
0.54537821 -0.36502364 0.6102066 1.097128e-38
0.55543923 -0.36495125 0.60999995 1.097128e-38
0.56545597 -0.36518776 0.61000019 1.097128e-38
0.57570511 -0.36508507 0.60999995 1.097128e-38
0.58493227 -0.36512405 0.61000001 1.097128e-38
0.59400946 -0.36729294 0.61000019 1.097128e-38
0.60206115 -0.36959621 0.61000007 1.097128e-38
0.73880118 -0.36651936 0.61000007 1.097128e-38
0.74534249 -0.36516097 0.60999995 1.097128e-38
0.75474322 -0.36499771 0.61000001 1.097128e-38
0.76574981 -0.36480603 0.61045784 1.097128e-38
0.77379006 -0.36481476 0.61000001 1.1063476e-38
0.78489912 -0.36508718 0.61000001 1.1063476e-38
0.79476082 -0.36466235 0.60999995 1.1063476e-38
0.80474782 -0.3649016 0.61000001 1.1063476e-38
0.8146922 -0.36538786 0.61035234 1.097128e-38
0.8251335 -0.36471221 0.61000001 1.1063476e-38
0.83553219 -0.36495662 0.61000007 1.1063476e-38
0.84305108 -0.36513367 0.61000001 1.1063476e-38
0.85522759 -0.36472932 0.61000001 1.1063476e-38
0.86293972 -0.36456031 0.61000007 1.1063476e-38
0.33502942 -0.35502598 0.61000025 1.0879084e-38
0.34531155 -0.3550863 0.61000037 1.0879084e-38
0.35514995 -0.35499951 0.61000025 1.0879084e-38
0.36508873 -0.35501012 0.61000025 1.0879084e-38
0.37533382 -0.35502166 0.61000025 1.0879084e-38
0.38502178 -0.35496098 0.61000031 1.0879084e-38
0.394683 -0.35504451 0.61000031 1.0879084e-38
0.40468636 -0.35506943 0.61000025 1.0879084e-38
0.41490492 -0.35496047 0.61000019 1.0879084e-38
0.42537555 -0.35506025 0.61000025 1.097128e-38
0.43510175 -0.35499829 0.6100533 1.0879084e-38
0.44485134 -0.35500485 0.61000019 1.097128e-38
0.45492423 -0.35497832 0.61000031 1.097128e-38
0.46527061 -0.35495305 0.61000019 1.097128e-38
0.47483152 -0.3549065 0.61000007 1.097128e-38
0.48446164 -0.35512009 0.61000013 1.097128e-38
0.49544114 -0.35483226 0.61000013 1.097128e-38
0.50540721 -0.35504901 0.61000019 1.097128e-38
0.514705 -0.35487309 0.61000007 1.097128e-38
0.52512741 -0.35506505 0.61000019 1.097128e-38
0.53567225 -0.35477313 0.61000037 1.097128e-38
0.54544342 -0.35508844 0.60999995 1.097128e-38
0.55537015 -0.35507393 0.60999995 1.097128e-38
0.56545597 -0.35506067 0.61000019 1.097128e-38
0.57472068 -0.35612673 0.60999995 1.097128e-38
0.58192754 -0.35842252 0.61000007 1.097128e-38
0.74559546 -0.35503897 0.60999995 1.097128e-38
0.75491124 -0.35497767 0.61000007 1.097128e-38
0.76556647 -0.35484284 0.61000001 1.097128e-38
0.77379006 -0.35498884 0.61000001 1.097128e-38
0.78489918 -0.3551873 0.61000001 1.097128e-38
0.79476082 -0.35469684 0.60999995 1.1063476e-38
0.80474776 -0.35486951 0.61000001 1.1063476e-38
0.81487548 -0.35521376 0.60999995 1.1063476e-38
0.82492256 -0.35488054 0.61000007 1.1063476e-38
0.83536601 -0.35524809 0.61000007 1.1063476e-38
0.84305108 -0.35484663 0.61000001 1.1063476e-38
0.85522759 -0.35436124 0.61000001 1.1063476e-38
0.86311197 -0.35464489 0.61000007 1.1063476e-38
0.33493549 -0.34501624 0.61000025 1.0879084e-38
0.34533885 -0.34512562 0.61000025 1.0879084e-38
0.35517761 -0.34494507 0.61000031 1.0879084e-38
0.3651464 -0.34496087 0.61000031 1.0879084e-38
0.37533391 -0.34497848 0.61000025 1.0879084e-38
0.38491237 -0.3450731 0.61000031 1.0879084e-38
0.39484191 -0.34502649 0.61000043 1.0879084e-38
0.404764 -0.34499994 0.61000013 1.0879084e-38
0.41490421 -0.34486315 0.61000031 1.0879084e-38
0.42529529 -0.34504977 0.61000019 1.0879084e-38
0.43500939 -0.34506676 0.61000019 1.097128e-38
0.4450841 -0.34495005 0.61000019 1.097128e-38
0.45509809 -0.34496629 0.61000025 1.097128e-38
0.46527055 -0.34484902 0.61000013 1.097128e-38
0.47488651 -0.34503052 0.61000001 1.097128e-38
0.48464921 -0.34511605 0.61000037 1.097128e-38
0.49534547 -0.34499705 0.61000019 1.097128e-38
0.50546521 -0.3449164 0.61000019 1.097128e-38
0.51470482 -0.34498948 0.61000037 1.097128e-38
0.52497327 -0.34499356 0.61000007 1.097128e-38
0.53567225 -0.34488401 0.61000031 1.097128e-38
0.54544342 -0.34512132 0.60999995 1.097128e-38
0.55499923 -0.34548476 0.6099999 1.097128e-38
0.56427008 -0.34757134 0.61000013 1.097128e-38
0.74610686 -0.34534574 0.61000001 1.097128e-38
0.75474322 -0.34495154 0.61000001 1.097128e-38
0.76556659 -0.34507167 0.61000001 1.097128e-38
0.77379006 -0.34516284 0.61000001 1.097128e-38
0.78507423 -0.3449586 0.61000001 1.097128e-38
0.79476082 -0.34473127 0.60999995 1.097128e-38
0.80495304 -0.34507802 0.61000007 1.1063476e-38
0.8148756 -0.34511426 0.60999995 1.1063476e-38
0.8251335 -0.34505594 0.61000001 1.1063476e-38
0.83553231 -0.34550732 0.61000007 1.1063476e-38
0.84283513 -0.344901 0.61000007 1.1063476e-38
0.85522753 -0.34502998 0.61000001 1.1063476e-38
0.86262977 -0.34739882 0.61000001 1.1063476e-38
0.33502907 -0.3350015 0.61000043 1.0879084e-38
0.34533912 -0.33506328 0.61000025 1.0879084e-38
0.35514998 -0.33488709 0.61000031 1.0879084e-38
0.36514655 -0.3350127 0.61000025 1.0879084e-38
0.37533394 -0.33493549 0.61000025 1.0879084e-38
0.38496694 -0.33505908 0.61000031 1.0879084e-38
0.39474687 -0.3350139 0.61000043 1.0879084e-38
0.40484142 -0.33492842 0.61000019 1.0879084e-38
0.41493756 -0.33498439 0.61000019 1.0879084e-38
0.42521477 -0.33504149 0.61000025 1.0879084e-38
0.43494827 -0.33509547 0.61000025 1.0879084e-38
0.44478518 -0.33502576 0.61000019 1.0879084e-38
0.4549242 -0.33494943 0.61000037 1.097128e-38
0.4651798 -0.33500403 0.61000019 1.097128e-38
0.47477701 -0.33500606 0.61000007 1.097128e-38
0.48455524 -0.33510688 0.61000025 1.097128e-38
0.49534541 -0.33516434 0.61000013 1.097128e-38
0.50540739 -0.33494991 0.61000019 1.097128e-38
0.514705 -0.33510581 0.61000025 1.097128e-38
0.5251019 -0.33505127 0.61000007 1.097128e-38
0.53567225 -0.33499491 0.61000001 1.097128e-38
0.54572505 -0.33476388 0.61125016 1.0325915e-38
0.55187213 -0.33574557 0.61000001 1.097128e-38
0.74734241 -0.33526808 0.61000007 1.097128e-38
0.75474304 -0.33492905 0.61000001 1.097128e-38
0.76539624 -0.33497453 0.61000001 1.097128e-38
0.77361786 -0.33500922 0.61000001 1.097128e-38
0.78489918 -0.33472618 0.61000001 1.097128e-38
0.79369622 -0.33501118 0.61000001 1.097128e-38
0.80618364 -0.33447722 0.61000007 1.097128e-38
0.81425232 -0.33638397 0.61000007 1.097128e-38
0.82587105 -0.33556786 0.61000007 1.097128e-38
0.83553225 -0.33936515 0.61000001 1.1063476e-38
0.84456092 -0.33530846 0.61000007 1.097128e-38
0.85522759 -0.33569869 0.61000001 1.097128e-38
0.33498213 -0.32498524 0.61000025 1.0879084e-38
0.34533885 -0.32500085 0.61000031 1.0879084e-38
0.35514984 -0.32503214 0.61000031 1.0879084e-38
0.36514649 -0.32506463 0.61000019 1.0879084e-38
0.37533388 -0.32489243 0.61000025 1.0879084e-38
0.38496703 -0.32492635 0.61000031 1.0879084e-38
0.39471504 -0.3249934 0.61000031 1.0879084e-38
0.40476412 -0.32510161 0.61000013 1.0879084e-38
0.41497132 -0.3251048 0.61000019 1.0879084e-38
0.42537564 -0.32503343 0.61000025 1.0879084e-38
0.43511194 -0.32500097 0.61000025 1.0879084e-38
0.44501787 -0.32496804 0.61000025 1.0879084e-38
0.45509815 -0.32493451 0.61000025 1.0879084e-38
0.46536136 -0.32515937 0.61000013 1.097128e-38
0.47483149 -0.32512996 0.61000001 1.097128e-38
0.48446164 -0.32510003 0.61000019 1.097128e-38
0.49525005 -0.32506657 0.61000013 1.097128e-38
0.50534987 -0.3249847 0.61000019 1.097128e-38
0.51476371 -0.3250564 0.61000025 1.097128e-38
0.52520216 -0.32497349 0.61000013 1.097128e-38
0.53557128 -0.32505766 0.610255 1.097128e-38
0.54587793 -0.32506973 0.61152214 1.0141528e-38
0.5513742 -0.32517028 0.61000007 1.097128e-38
0.74820518 -0.32506722 0.61000007 1.097128e-38
0.75474322 -0.3249065 0.61000007 1.097128e-38
0.76556647 -0.32487896 0.61000001 1.097128e-38
0.77379006 -0.32485709 0.61000001 1.097128e-38
0.78489912 -0.32482627 0.61000001 1.097128e-38
0.79145473 -0.32668853 0.61000007 1.097128e-38
0.80618364 -0.32443562 0.61000007 1.097128e-38
0.81051302 -0.32542986 0.61000001 1.097128e-38
0.82660848 -0.32505518 0.61000007 1.097128e-38
0.8445608 -0.32501137 0.61000007 1.097128e-38
0.85522759 -0.32533064 0.61000001 1.097128e-38
0.33511752 -0.31510198 0.61012906 1.0879084e-38
0.34541437 -0.31509095 0.61009103 1.0879084e-38
0.3550933 -0.31507498 0.61000031 1.0879084e-38
0.36505058 -0.31521094 0.61004448 1.0786889e-38
0.37533376 -0.31484944 0.61000037 1.0879084e-38
0.38489231 -0.31503597 0.61000025 1.0879084e-38
0.39481023 -0.31498167 0.61000031 1.0879084e-38
0.404764 -0.31503001 0.61000013 1.0879084e-38
0.41490433 -0.31511512 0.61000019 1.0879084e-38
0.42529541 -0.31502503 0.61000025 1.0879084e-38
0.43503031 -0.31490618 0.61000037 1.0879084e-38
0.4449006 -0.31505808 0.61007249 1.0879084e-38
0.4549242 -0.31492054 0.61000019 1.0879084e-38
0.46518427 -0.31505671 0.61000025 1.0879084e-38
0.47477877 -0.31509456 0.61000007 1.097128e-38
0.48464927 -0.31509122 0.61000013 1.097128e-38
0.49544105 -0.31496671 0.61000013 1.097128e-38
0.50540727 -0.31485176 0.61000025 1.097128e-38
0.51470506 -0.31501395 0.61000031 1.097128e-38
0.5251019 -0.31489635 0.61000013 1.097128e-38
0.53567201 -0.31505188 0.61000001 1.097128e-38
0.54609573 -0.31496435 0.61146432 1.0141885e-38
0.55119753 -0.31458691 0.61065966 1.0418466e-38
0.74938798 -0.31525764 0.61000007 1.097128e-38
0.75457555 -0.31488624 0.61000013 1.097128e-38
0.76556653 -0.3151077 0.61000001 1.097128e-38
0.77379 -0.31503108 0.61000001 1.097128e-38
0.78489912 -0.31492633 0.61000001 1.097128e-38
0.80618364 -0.31439397 0.61000007 1.097128e-38
0.81051302 -0.31535941 0.61000001 1.097128e-38
0.82660836 -0.3148776 0.61000007 1.097128e-38
0.8445608 -0.31471431 0.61000007 1.097128e-38
0.85522759 -0.31496257 0.61000001 1.097128e-38
0.33499464 -0.3050518 0.61000031 1.0879084e-38
0.34528333 -0.30497429 0.61000025 1.0879084e-38
0.35517815 -0.3050217 0.61000025 1.0879084e-38
0.36506024 -0.30506518 0.61000025 1.0879084e-38
0.37524191 -0.30490702 0.61000031 1.0879084e-38
0.38496703 -0.3051438 0.61000019 1.0879084e-38
0.394683 -0.30496299 0.61000043 1.0879084e-38
0.40468654 -0.30496037 0.61000013 1.0879084e-38
0.41483879 -0.30502108 0.61000025 1.0879084e-38
0.42513067 -0.30494463 0.61000896 1.0879084e-38
0.43492547 -0.30493727 0.61000019 1.0879084e-38
0.4450179 -0.30511063 0.61000013 1.0879084e-38
0.45503515 -0.30502927 0.61000019 1.0879084e-38
0.46536139 -0.30494982 0.61000013 1.0879084e-38
0.47488633 -0.304919 0.61000007 1.0879084e-38
0.48455524 -0.30508441 0.61000013 1.0879084e-38
0.49534541 -0.30486894 0.61000013 1.097128e-38
0.50540745 -0.30504361 0.60999995 1.097128e-38
0.51464665 -0.30497307 0.61000025 1.097128e-38
0.52510184 -0.30509171 0.61000007 1.097128e-38
0.53567225 -0.30499801 0.60999995 1.097128e-38
0.54581648 -0.30524194 0.61075348 1.0510306e-38
0.55181056 -0.30513883 0.61188537 9.8652995e-39
0.74938798 -0.30945951 0.61000007 1.097128e-38
0.75494993 -0.30550545 0.61000007 1.097128e-38
0.76514685 -0.30569467 0.61000007 1.097128e-38
0.77447885 -0.30584812 0.61000007 1.097128e-38
0.78591615 -0.30536932 0.61000007 1.097128e-38
0.80618364 -0.30435234 0.61000007 1.097128e-38
0.81051302 -0.30528897 0.61000001 1.097128e-38
0.82660836 -0.30470005 0.61000007 1.097128e-38
0.84472901 -0.30490991 0.61000007 1.097128e-38
0.85522759 -0.30459446 0.61000001 1.097128e-38
0.33502901 -0.29495069 0.61000025 1.0879084e-38
0.34536651 -0.29501346 0.61000031 1.0879084e-38
0.35514995 -0.29506537 0.61000025 1.0879084e-38
0.36514649 -0.29501808 0.61000019 1.0879084e-38
0.37533382 -0.2949692 0.61000037 1.0879084e-38
0.38496703 -0.29501107 0.61000019 1.0879084e-38
0.39487556 -0.29505554 0.61000025 1.0879084e-38
0.40474528 -0.29500782 0.61000013 1.0879084e-38
0.41503847 -0.29493156 0.61000019 1.0879084e-38
0.42537564 -0.29500657 0.61000025 1.0879084e-38
0.4350709 -0.29496884 0.61000013 1.0879084e-38
0.4448278 -0.29505706 0.61000013 1.0879084e-38
0.45499167 -0.29502171 0.61000025 1.0879084e-38
0.46516013 -0.29497728 0.61000019 1.0879084e-38
0.47488648 -0.29487824 0.61000007 1.0879084e-38
0.48446158 -0.29507998 0.61000013 1.0879084e-38
0.49522313 -0.29490367 0.61000013 1.0879084e-38
0.50546521 -0.29506946 0.61000013 1.097128e-38
0.514705 -0.29492316 0.61000025 1.097128e-38
0.52469242 -0.29526028 0.61000007 1.097128e-38
0.53610241 -0.29538324 0.6099999 1.097128e-38
0.54544336 -0.29495433 0.60999995 1.097128e-38
0.55200273 -0.29493508 0.61324447 8.9437048e-39
0.75743073 -0.29574853 0.61000013 1.097128e-38
0.76420271 -0.2952702 0.61000007 1.097128e-38
0.77424687 -0.29613367 0.61000007 1.097128e-38
0.78579754 -0.29489422 0.61030596 1.097128e-38
0.79825068 -0.29486981 0.61956018 1.097128e-38
0.80634356 -0.29479015 0.61000007 1.097128e-38
0.81051302 -0.29521856 0.61000001 1.097128e-38
0.82660848 -0.29452246 0.61000007 1.097128e-38
0.8445608 -0.29514888 0.61000007 1.097128e-38
0.85522759 -0.29422641 0.61000001 1.097128e-38
